0.46383688 1.596526 7.6113515 96 83 62
0.55842441 1.5915848 7.6113515 73 77 82
0.63950396 1.5888253 7.6113529 84 86 88
0.74971682 1.5912316 7.611352 81 80 85
0.83971608 1.596526 7.6113515 74 67 56
1.0567729 1.596526 7.611352 53 50 56
1.2773594 1.5929967 7.6113515 93 96 97
1.3400061 1.5925553 7.6113515 98 104 108
1.4485345 1.596526 7.611352 103 105 107
1.5332396 1.596526 7.6113515 100 105 108
1.6708854 1.596526 7.611352 91 98 101
1.7079439 1.596526 7.611352 88 95 97
2.2759225 1.5866944 7.6113515 28 22 20
2.3180859 1.5899084 7.6113515 29 22 19
-2.371433 1.6871136 7.611352 122 119 123
-2.2424932 1.6907612 7.611352 120 122 122
-2.152494 1.6849372 7.6113524 122 122 124
-2.0469975 1.6850816 7.6113529 122 120 125
-1.9501865 1.677696 7.6232533 108 102 97
-1.8498001 1.679461 7.6301932 117 114 112
-1.7487487 1.6831578 7.6314487 117 116 116
-1.6526457 1.6698854 7.6231298 116 117 123
-1.5567017 1.6659871 7.6197257 117 113 121
-1.4458483 1.6586509 7.6142526 113 112 115
-1.3670535 1.6609182 7.6292963 108 110 113
-1.2560769 1.6407238 7.6364703 119 121 129
-1.1585698 1.6358539 7.6113553 116 118 124
-1.0442176 1.6267779 7.6113544 121 121 122
-0.95232761 1.6269674 7.6113548 115 115 117
-0.84691328 1.6239307 7.6113548 114 115 118
-0.75379974 1.6155849 7.6113539 103 101 102
-0.6479184 1.6124082 7.611352 72 63 60
-0.55039614 1.6132444 7.6113524 111 113 115
-0.44663441 1.614502 7.6214032 114 111 112
-0.35145032 1.6229966 7.6113553 115 117 117
-0.25386763 1.6217089 7.6113553 118 118 116
-0.15487911 1.6158612 7.6113534 121 121 119
-0.049688302 1.6124083 7.6113524 118 120 121
0.050899334 1.6124085 7.611352 115 117 115
0.15011407 1.6165261 7.6113544 116 116 117
0.2481035 1.6190256 7.6113534 112 116 124
0.34255454 1.6152958 7.6113529 117 124 121
0.44689578 1.6155847 7.6113539 109 115 118
0.54060119 1.6097611 7.6113515 95 99 104
0.67229116 1.6157169 7.6113515 74 74 74
0.74789131 1.6191627 7.6113544 74 73 76
0.8525731 1.6131647 7.6113529 77 77 79
0.95424873 1.6339719 7.6113558 61 58 56
1.0485914 1.613852 7.6113529 56 50 45
1.1492615 1.6105016 7.6275001 96 98 99
1.2509058 1.6173124 7.638267 95 99 98
1.3479472 1.6177022 7.6113544 97 99 99
1.4519331 1.6190587 7.6239157 102 105 108
1.5517941 1.6196957 7.615428 94 101 104
1.6447681 1.6201726 7.6113544 94 98 101
1.748346 1.6138016 7.6113524 91 97 99
1.8575141 1.6242731 7.6264262 79 78 75
1.9502498 1.6254399 7.6113539 44 39 35
2.0433393 1.6323394 7.6113548 26 21 18
2.1513226 1.6481434 7.6113534 27 20 18
2.2532334 1.6422007 7.6113563 22 18 16
2.3267622 1.6212317 7.611352 24 19 17
-4.1473007 1.797701 7.6113515 139 135 132
-4.0784779 1.7977011 7.611352 133 138 131
-3.9441535 1.7937819 7.6351509 126 127 121
-3.8518915 1.7892303 7.6113539 134 126 128
-3.7523549 1.792578 7.6188889 128 126 125
-3.6531868 1.7827011 7.6113515 128 121 126
-3.5550702 1.7793483 7.6113544 123 124 123
-3.4348695 1.7784157 7.6113544 113 109 111
-3.3489411 1.7711997 7.6306763 105 99 96
-3.2586851 1.7665492 7.6656098 89 89 92
-3.1627247 1.7524863 7.6232514 98 88 85
-3.0531175 1.7451037 7.6314478 116 106 107
-2.9493032 1.7389539 7.6113548 105 107 111
-2.8549111 1.7325337 7.6231303 126 126 128
-2.7373805 1.7311184 7.6377296 134 140 138
-2.6554308 1.7278194 7.6113515 127 132 131
-2.5235329 1.7145087 7.6113515 130 130 129
-2.449532 1.7125888 7.6113539 123 124 127
-2.3538172 1.709146 7.6264238 120 120 121
-2.2520223 1.7077019 7.6113524 116 119 117
-2.1580524 1.7077019 7.6113515 121 121 114
-2.0561419 1.702408 7.611352 100 107 120
-4.7431388 1.8520083 7.6113548 142 146 147
-4.651052 1.8579718 7.6113553 172 175 174
-4.544003 1.8460537 7.6113544 156 154 151
-4.4490628 1.8387297 7.6113534 149 147 144
-4.342031 1.8382119 7.6113558 148 145 143
-4.2525034 1.8346233 7.6113553 142 141 138
-4.1578145 1.8195088 7.6140451 135 136 135
-4.056848 1.8133337 7.6356635 129 132 130
-3.9630675 1.8104064 7.611352 119 122 124
-3.8267148 1.8129948 7.611352 123 115 119
-3.7303927 1.8122594 7.6113515 122 116 117
-3.6888337 1.8125244 7.611352 123 117 123
-4.7137661 1.9776989 7.6113524 150 137 133
-4.6820016 1.9776989 7.6113524 147 143 137
-4.2178884 1.9812287 7.6113515 122 123 123
-4.155086 1.9833053 7.6113515 127 125 125
-4.0520067 1.9882882 7.611352 125 126 120
-3.9514203 1.988288 7.611352 123 122 122
-3.8508325 1.9882882 7.611352 119 120 124
-3.7502453 1.988288 7.611352 119 122 126
-3.6637752 1.9900527 7.6113515 126 126 125
-3.5490706 1.998876 7.611352 136 134 137
-3.448483 1.998876 7.611352 136 138 134
-3.3478956 1.998876 7.611352 143 135 138
-3.2458646 1.9950256 7.6113515 141 139 136
-3.1520145 1.9882876 7.6113524 137 136 134
-3.0710909 1.9958506 7.6113515 129 133 137
-3.602011 2.009464 7.611352 127 128 140
-3.5490706 2.009464 7.611352 129 127 131
-3.448483 2.009464 7.611352 142 138 135
-3.3478956 2.009464 7.611352 140 133 139
-3.2526026 2.009464 7.611352 139 137 130
-3.1520147 2.009464 7.611352 144 136 132
-3.0673096 2.009464 7.6113515 123 127 129
-0.70947599 1.5960571 7.7635798 76 71 76
-0.65007699 1.5960571 7.7635794 68 64 59
-0.55557764 1.5960571 7.7635798 118 120 124
-0.46647841 1.5960571 7.7635798 124 126 131
-0.32902521 1.5911479 7.7635798 129 123 130
-0.2504805 1.5960571 7.7635798 124 123 125
-0.15328099 1.5960571 7.7635794 121 125 136
-0.061482005 1.5960571 7.7635798 112 123 117
0.067217007 1.5915569 7.7635798 94 84 63
0.14080876 1.592734 7.7635798 84 78 72
0.25063545 1.5960571 7.7635794 70 76 87
0.34891471 1.5960571 7.7635794 84 84 87
0.44660494 1.5940933 7.7635798 93 97 99
0.54871297 1.5960571 7.7635794 94 96 99
0.65131223 1.5960571 7.7635794 89 92 95
0.71611202 1.5960571 7.7635798 86 99 97
1.0509088 1.5960571 7.7635794 63 59 58
1.1427079 1.5960571 7.7635798 98 98 102
1.6481439 1.5917373 7.7635798 99 98 100
1.709703 1.5960571 7.7635798 86 93 97
2.2820983 1.5960571 7.7635798 29 23 22
2.3144979 1.5960571 7.7635798 30 25 25
-2.5076611 1.693256 7.7635798 120 121 114
-2.3251429 1.688936 7.7635794 123 123 122
-2.2362237 1.6874962 7.7635798 128 129 128
-2.176187 1.6832868 7.7635798 114 117 116
-2.0338151 1.6865062 7.7635798 119 117 123
-1.946066 1.6735349 7.7635798 114 118 121
-1.8440256 1.6742635 7.7635798 118 118 116
-1.7552677 1.6723771 7.7635798 118 120 121
-1.6579397 1.6650997 7.7635798 116 120 123
-1.5427749 1.6699518 7.7635794 113 111 110
-1.4477272 1.6598279 7.7635794 111 112 113
-1.3486152 1.6578326 7.7635798 109 114 116
-1.2575718 1.6433072 7.7635798 117 117 120
-1.1402265 1.6363488 7.7635798 117 118 120
-1.0487735 1.6239567 7.7635798 119 118 116
-0.95584911 1.6250814 7.7635798 111 111 113
-0.84987515 1.6187367 7.7635798 113 119 119
-0.74893755 1.6172414 7.7635798 98 96 95
-0.65007704 1.612257 7.7635794 82 70 65
-0.55287766 1.6122569 7.7635794 122 121 123
-0.44757861 1.610907 7.7635798 122 119 123
-0.34767941 1.6176568 7.7635798 115 115 118
-0.25453016 1.6163069 7.7635798 121 123 123
-0.16015372 1.6088207 7.7635798 124 127 125
-0.056082003 1.6104569 7.7635798 126 128 124
0.047597136 1.611177 7.7635798 116 122 132
0.15214027 1.6167928 7.7635798 112 122 122
0.25017276 1.6188139 7.7635798 111 106 98
0.34734696 1.6183535 7.7635798 90 90 92
0.44688544 1.6145712 7.7635794 84 83 81
0.54099876 1.6107142 7.7635798 88 88 89
0.681912 1.608657 7.7635798 96 96 96
0.74431127 1.608057 7.7635794 87 92 92
0.85583544 1.612257 7.7635798 55 53 53
0.95370966 1.6243027 7.7635798 52 46 43
1.0438473 1.6164106 7.7635798 55 50 47
1.1504841 1.6167928 7.7635798 96 98 102
1.2507071 1.6122569 7.7635794 97 98 97
1.3425062 1.6068571 7.7635798 98 104 109
1.4748054 1.6095569 7.7635798 103 107 109
1.5627046 1.6140568 7.7635794 100 105 107
1.64728 1.6167929 7.7635798 96 99 101
1.7524123 1.6152023 7.7635798 85 86 86
1.8443022 1.6236566 7.7635798 49 47 43
1.9543629 1.6280414 7.7635798 29 22 18
2.0427005 1.6278567 7.7635794 25 19 16
2.1419158 1.6478964 7.7635798 26 20 17
2.2542889 1.6376369 7.7635794 23 18 16
-4.0455689 1.786135 7.7635798 141 133 134
-3.9494491 1.7850552 7.7635794 127 129 128
-3.8551576 1.787132 7.7635798 126 128 124
-3.7553687 1.7847375 7.7635794 127 127 125
-3.6459723 1.786135 7.7635798 130 124 125
-3.5498528 1.7850552 7.7635794 121 119 120
-3.4438787 1.7762806 7.7635798 100 99 113
-3.3527541 1.7661558 7.7635794 95 86 80
-3.2471373 1.7586913 7.7635794 110 102 92
-3.1526556 1.7496566 7.7635794 119 120 121
-3.04988 1.7409034 7.7635794 139 139 135
-2.9597149 1.736456 7.7635794 140 139 133
-2.8401105 1.7341083 7.7635798 138 139 138
-2.7498875 1.7287415 7.7635794 139 136 134
-2.6492946 1.7305936 7.7635794 128 131 133
-2.5508611 1.7202559 7.7635798 128 131 129
-2.463922 1.7126957 7.7635794 124 126 128
-2.3485048 1.7091717 7.7635794 122 123 130
-2.2601633 1.7076559 7.7635798 127 123 116
-2.1458642 1.7040559 7.7635798 119 119 115
-2.0810649 1.704056 7.7635798 122 120 130
-4.8123622 1.857415 7.7635794 158 172 164
-4.7508812 1.8481432 7.7635794 150 159 156
-4.6592431 1.8544548 7.7635798 172 172 171
-4.5245442 1.8566051 7.7635798 152 147 142
-4.4535232 1.8406982 7.7635798 147 148 147
-4.34588 1.8295586 7.7635798 148 147 146
-4.2734466 1.821505 7.7635798 146 144 146
-4.1503277 1.8098952 7.7635794 135 134 136
-4.0599027 1.8105819 7.7635798 129 129 129
-3.9450309 1.8022369 7.7635798 132 129 126
-3.8515751 1.8059802 7.7635798 129 129 126
-3.7561307 1.805575 7.7635798 126 127 125
-3.5444527 1.801255 7.7635794 124 121 115
-4.8458419 2.028054 7.7635798 140 136 135
-4.748642 2.0280538 7.7635794 145 146 135
-4.6460433 2.028054 7.7635794 131 129 133
-4.5488443 2.028054 7.7635794 134 130 127
-4.4516444 2.028054 7.7635794 123 122 119
-4.3544455 2.028054 7.7635794 127 125 121
-4.2302465 2.0442526 7.7635798 127 119 122
-4.1492476 2.0442526 7.7635794 127 126 123
-4.0520487 2.0442526 7.7635794 124 125 122
-3.9494491 2.0442529 7.7635794 118 116 118
-3.8468497 2.0442526 7.7635794 122 124 128
-3.7496512 2.0442526 7.7635794 132 128 121
-3.6902509 2.0442529 7.7635798 128 125 126
0.079714499 1.590361 7.842 87 92 100
-2.3093565 1.699451 7.842 140 135 125
-2.282084 1.699451 7.8420005 113 125 118
-2.183903 1.688542 7.842 118 120 122
-2.0748129 1.699451 7.842 132 128 121
-1.4202729 1.6667238 7.8420005 109 108 101
-1.3875461 1.6667238 7.8420005 108 110 107
-1.213002 1.644906 7.842 115 123 122
-1.0548215 1.623088 7.842 119 115 109
-0.41664496 1.6121792 7.8420005 120 119 129
-0.37846351 1.6094518 7.842 121 125 122
-0.296646 1.60127 7.842 129 121 113
0.041533001 1.60127 7.842 53 67 76
1.099705 1.60127 7.842 90 95 108
1.1324326 1.60127 7.842 94 97 102
1.4706112 1.6176335 7.8419995 101 108 114
1.5197026 1.6176336 7.842 100 105 106
1.748791 1.612179 7.842 64 81 92
-3.863889 1.797632 7.842 129 128 121
-3.252985 1.753996 7.842 77 103 119
-2.892988 1.7430871 7.842 131 138 133
-2.7129896 1.721269 7.842 156 148 132
-2.674808 1.721269 7.842 127 133 134
-2.4348102 1.7103598 7.8419995 120 124 124
-2.3911741 1.7103601 7.842 126 123 114
-2.0966311 1.7103601 7.842 115 122 145
-4.8075175 1.830359 7.842 211 212 204
-4.4360056 1.8303587 7.8419995 147 151 148
-4.3637195 1.8323423 7.842 144 149 147
-4.2620673 1.8376316 7.8419995 134 139 129
-0.81762838 1.595569 7.92202 116 111 109
-0.75977159 1.5928138 7.92202 109 108 118
-0.65232337 1.5955689 7.92202 77 69 70
-0.58620167 1.595569 7.92202 108 102 104
-0.44293728 1.5908459 7.92202 92 96 108
-0.38563189 1.5856504 7.92202 92 97 100
-0.14245027 1.5904261 7.92202 89 92 99
-0.079267003 1.595569 7.92202 88 96 114
0.077772491 1.5873035 7.92202 94 100 104
0.16919108 1.5885558 7.92202 58 53 51
0.21552625 1.5928137 7.92202 81 86 80
0.38138241 1.5933648 7.92202 93 94 94
0.44970804 1.5900587 7.9220209 97 98 99
0.54889101 1.5955689 7.92202 91 98 101
0.64325243 1.5907476 7.92202 96 95 100
0.72521597 1.595569 7.92202 91 96 99
0.86296988 1.595569 7.92202 52 50 51
0.95113248 1.595569 7.92202 48 42 39
1.0503151 1.5955689 7.92202 66 64 62
1.1494981 1.5955689 7.92202 98 97 99
1.3547515 1.5955689 7.92202 100 103 109
1.4305164 1.595569 7.92202 102 108 107
1.5792905 1.595569 7.92202 107 110 107
1.6539279 1.5870532 7.9220219 81 84 88
1.7096974 1.5918955 7.92202 46 40 37
-2.5257771 1.6919966 7.92202 136 136 139
-2.4443963 1.6913607 7.92202 132 125 131
-2.349452 1.6892414 7.9220209 118 120 120
-2.2522137 1.6889173 7.9220204 115 119 118
-2.1381214 1.6869726 7.9220204 123 126 122
-2.050945 1.6846898 7.9220223 120 125 123
-1.9500604 1.6753707 7.9220233 122 125 123
-1.8548095 1.6722867 7.9220228 112 113 110
-1.7556267 1.6697434 7.9220228 113 116 121
-1.6486195 1.6658598 7.9220243 118 119 119
-1.5462407 1.66169 7.9220228 114 115 119
-1.4439921 1.6516951 7.9220247 114 117 119
-1.346259 1.6486034 7.9220238 117 116 120
-1.2490411 1.6428907 7.9220238 125 124 121
-1.1502414 1.6326364 7.9220238 116 118 118
-1.0560678 1.6306336 7.92202 110 114 111
-0.94117177 1.6286297 7.9220214 109 114 114
-0.84760356 1.6184906 7.9220228 113 116 116
-0.75563884 1.6162316 7.9220223 101 101 107
-0.65232342 1.6120991 7.9220209 76 68 64
-0.55256063 1.6129688 7.9220214 118 119 119
-0.45395768 1.6120989 7.9220209 121 122 123
-0.36304021 1.609344 7.92202 121 121 117
-0.2569696 1.6176093 7.92202 117 122 119
-0.14538902 1.6120987 7.9220209 98 96 78
-0.042348903 1.613752 7.9220214 84 83 82
0.024323799 1.6143032 7.92202 84 83 83
0.16003136 1.6105248 7.92202 70 66 63
0.25034049 1.6151047 7.9220219 86 89 91
0.35052538 1.6120991 7.9220209 90 92 93
0.4517743 1.61141 7.92202 93 97 100
0.54889095 1.6120987 7.9220209 98 98 101
0.64807373 1.6120987 7.9220209 92 93 98
0.75204813 1.6156925 7.9220223 86 90 94
0.84491938 1.6191295 7.9220233 77 76 78
0.94862795 1.621616 7.9220238 47 42 39
1.0463078 1.6136018 7.9220219 55 52 49
1.1632736 1.609344 7.92202 97 98 99
1.2550726 1.6184906 7.9220228 95 99 101
1.3533739 1.6176088 7.9220233 99 102 102
1.4411565 1.6252089 7.9220233 102 107 109
1.5600048 1.6203649 7.9220233 101 105 107
1.6360126 1.6150161 7.9220204 98 102 103
1.7508926 1.6160346 7.92202 60 58 54
1.8540113 1.625481 7.9220219 29 23 19
1.945716 1.6300076 7.9220223 27 21 18
2.0488136 1.63501 7.9220214 24 19 16
2.1458783 1.6420456 7.9220223 26 19 17
2.2441027 1.6430037 7.9220247 23 18 16
2.301121 1.62863 7.92202 26 20 18
-4.2118855 1.793934 7.92202 150 142 147
-4.1457634 1.7939341 7.92202 142 136 133
-4.0796413 1.793934 7.92202 133 135 138
-3.9584179 1.7939341 7.92202 126 123 119
-3.8351905 1.7899266 7.92202 130 126 123
-3.7497206 1.7891124 7.92202 129 124 121
-3.6379812 1.7888478 7.92202 127 124 123
-3.5480063 1.7813936 7.9220233 126 127 127
-3.4550383 1.7747374 7.9220238 129 130 128
-3.3492951 1.7678859 7.9220238 119 119 120
-3.2550855 1.7522142 7.9220233 125 123 120
-3.153935 1.749853 7.92202 128 128 129
-3.0547519 1.7443429 7.9220209 145 140 131
-2.951896 1.742506 7.9220243 139 141 140
-2.8412335 1.72919 7.9220223 142 143 147
-2.7608771 1.7327101 7.92202 136 139 134
-2.6478479 1.7248456 7.9220228 131 130 133
-2.5473938 1.7163684 7.9220228 126 127 130
-2.4486351 1.7112823 7.9220209 126 122 124
-2.3538604 1.7068741 7.92202 116 119 116
-2.28333 1.705772 7.92202 126 116 113
-2.1506069 1.7153548 7.9220223 119 120 125
-2.0684338 1.705772 7.92202 129 123 115
-4.8214459 1.8455921 7.92202 182 182 179
-4.7512903 1.8401803 7.9220252 145 155 154
-4.659452 1.8660995 7.9220238 161 163 161
-4.5576949 1.8494166 7.9220233 147 149 147
-4.4524951 1.8242403 7.9220223 143 146 146
-4.3452892 1.8255457 7.9220243 144 144 141
-4.2476063 1.8174952 7.9220233 139 137 136
-4.1567841 1.8096778 7.92202 132 134 131
-4.0686207 1.8049549 7.92202 133 125 129
-3.9418874 1.8049548 7.92202 131 128 122
-3.8482146 1.8049548 7.92202 125 121 117
-3.7569032 1.8088906 7.92202 127 125 123
-3.6498494 1.8049548 7.92202 130 123 120
-3.5671968 1.8049549 7.92202 126 124 126
-5.1431017 2.069442 7.92202 169 163 157
-5.0494294 2.069442 7.92202 156 154 149
-4.9306545 2.0841358 7.92202 142 142 142
-4.8510633 2.0859728 7.9220209 149 145 140
-4.7518802 2.0859728 7.9220209 131 128 123
-4.652698 2.0859728 7.9220209 130 125 124
-4.5535154 2.0859728 7.9220209 123 122 120
-4.4543324 2.0859728 7.9220209 120 121 124
-4.3771896 2.0859723 7.92202 123 125 124
-0.83261657 1.5919919 8.0870609 115 113 112
-0.78591233 1.59131 8.0870619 113 118 122
-0.64903879 1.5950601 8.0870619 85 76 72
-0.58153903 1.59506 8.0870619 62 49 44
-0.41560325 1.5922475 8.0870619 99 106 110
-0.37229097 1.59056 8.0870609 105 108 110
-0.18029 1.5897501 8.0036907 102 106 102
0.071614429 1.5899045 8.0691957 76 75 68
0.15645452 1.59281 8.0870609 65 62 62
0.24532884 1.5894353 8.0870619 96 97 98
0.34657803 1.5894351 8.0870619 97 95 99
0.43938944 1.5922476 8.0870609 100 100 101
0.54907626 1.5950601 8.0870619 101 103 100
0.65032542 1.5950601 8.0870619 89 92 95
0.75157458 1.5950601 8.0870619 80 84 89
0.85282356 1.5950601 8.0870619 45 41 42
0.95407283 1.5950601 8.0870619 51 46 43
1.049697 1.5950601 8.0870619 75 74 70
1.100322 1.59506 8.0870619 93 95 97
1.2859449 1.589435 8.0870619 96 98 103
1.3478198 1.5894351 8.0870619 98 106 106
1.4125065 1.5922475 8.0870619 99 107 112
1.5776389 1.5918456 8.0870619 90 96 103
1.6402576 1.5900036 8.0719032 77 80 86
1.7447802 1.5910424 8.0870609 26 20 17
1.8259405 1.59506 8.0870619 27 20 18
2.247812 1.59506 8.0870619 20 19 18
-2.8258951 1.696309 8.0870619 141 150 143
-2.5446475 1.696309 8.0870619 128 128 131
-2.4468515 1.6907737 8.0681143 124 129 128
-2.3531942 1.6939044 8.0801134 122 125 128
-2.2473285 1.6882727 8.0870619 121 121 124
-2.1522808 1.678834 8.0431814 123 122 123
-2.0649037 1.6856582 8.0592728 117 118 116
-1.943581 1.6770232 8.0870619 114 116 118
-1.8503033 1.674709 8.0870628 117 116 115
-1.7474574 1.6621058 8.0808878 120 116 119
-1.641441 1.6681843 8.0870609 112 115 114
-1.5541153 1.6592531 8.0841885 115 117 119
-1.4531914 1.6465153 8.0828934 126 119 118
-1.3572713 1.6487527 8.0870628 121 120 113
-1.2428527 1.6358842 8.0695105 114 118 122
-1.1465191 1.629779 8.0841885 115 116 117
-1.0469295 1.631539 8.0825577 113 114 117
-0.9519285 1.6236783 8.0668516 114 114 116
-0.85725492 1.6151481 8.0830917 113 115 117
-0.7476629 1.61156 8.0870609 113 116 121
-0.65466362 1.611935 8.0870619 78 72 69
-0.55200821 1.6161541 8.0870628 89 81 73
-0.467751 1.6043369 8.0567465 89 79 70
-0.33797857 1.6169975 8.0870619 101 97 92
-0.24673121 1.6212622 8.0751534 98 97 92
-0.14925927 1.6088744 8.0794821 97 98 100
-0.046146091 1.6170486 8.0870628 100 102 107
0.027830997 1.62131 8.0870619 102 105 110
0.1387116 1.6052811 8.0370398 62 53 48
0.25345603 1.6090477 8.0553017 93 96 99
0.34235927 1.6161538 8.0870628 92 93 94
0.44782701 1.60631 8.0870619 95 99 100
0.55172318 1.6116039 8.0870609 96 96 99
0.6503253 1.6083554 8.0870609 91 95 96
0.75639582 1.6143458 8.0870619 91 91 95
0.84771001 1.6150035 8.0870628 64 60 58
0.95407295 1.6143458 8.0870619 47 43 41
1.0496969 1.611935 8.0870609 59 62 60
1.1516396 1.6063896 8.0537128 92 96 99
1.2520943 1.6171384 8.0806503 98 101 104
1.3442401 1.6150032 8.0870628 100 104 106
1.4514371 1.6128231 8.0870619 100 104 107
1.5450679 1.6201857 8.0870638 100 106 107
1.6248481 1.6105287 8.0870619 94 99 100
1.7720389 1.6163191 8.0777979 27 22 18
1.8532867 1.6231838 8.0824318 28 21 18
1.9492139 1.6322458 8.0824299 25 19 18
2.0480137 1.6391603 8.0870628 24 18 15
2.1465626 1.6400599 8.0870628 25 19 16
2.2388117 1.6368459 8.0870638 20 16 14
-4.7665043 1.797558 8.0870619 208 209 204
-4.4233818 1.793808 8.0870619 155 159 150
-4.3577576 1.793808 8.0870609 150 151 153
-4.1533842 1.7935401 8.0870609 140 138 129
-4.0434809 1.7940966 8.0870609 136 131 127
-3.9508853 1.7919331 8.0870619 136 132 126
-3.8496366 1.793058 8.0870609 129 126 125
-3.7439675 1.7851028 8.0870638 124 125 125
-3.643996 1.7741389 8.0801163 127 127 127
-3.5494704 1.770393 8.0787268 127 127 127
-3.4546847 1.7682283 8.0870638 125 121 123
-3.3499861 1.7548864 8.0870638 128 129 130
-3.2567878 1.7518538 8.0787268 136 133 130
-3.1541395 1.7533816 8.0784388 131 135 135
-3.0508931 1.745059 8.0870628 137 142 137
-2.9665191 1.744523 8.0870609 142 144 147
-2.8367937 1.7318171 8.0870638 142 140 136
-2.7506714 1.7270391 8.0731688 141 141 141
-2.6527445 1.7246789 8.0870628 131 133 136
-2.5525007 1.7090161 8.0794821 127 126 125
-2.4736397 1.7038618 8.039422 122 121 122
-2.353399 1.7075589 8.0870619 124 126 124
-2.2448924 1.7063826 8.0719032 118 121 119
-2.1872728 1.7027066 8.0245333 120 128 125
-4.8183794 1.8325582 8.0870619 182 190 182
-4.749094 1.8477367 8.0870647 138 149 151
-4.6553288 1.8485138 8.0870638 162 168 169
-4.5508804 1.8373082 8.0870609 146 147 151
-4.4392872 1.8239372 8.0870638 148 151 148
-4.3519702 1.8195685 8.0870628 140 140 143
-4.2546329 1.820058 8.0870619 143 144 151
-4.1384859 1.8132366 8.0681143 140 134 130
-4.0517001 1.8159573 8.06141 124 127 127
-3.9527342 1.8117336 8.0607338 136 130 133
-3.8486252 1.8093828 8.074235 127 123 122
-3.7461371 1.813308 8.0870609 127 126 126
-3.6652091 1.801295 8.0036907 120 123 118
-5.3046241 2.1313055 8.0870619 153 159 166
-5.2502499 2.1294308 8.0870609 168 171 172
-5.1546249 2.1294305 8.0870619 147 145 146
-5.0758758 2.1294305 8.0870609 136 137 134
-0.82071131 1.5891129 8.1721888 108 119 116
-0.797975 1.589113 8.1721888 116 130 133
-2.1543031 1.6853067 8.1721888 126 127 125
-1.9745963 1.68006 8.1721888 112 112 117
-1.821124 1.68006 8.1721888 112 111 117
-1.7415457 1.68006 8.1721888 120 123 121
-1.6847039 1.6762706 8.1721888 116 108 121
-1.5141789 1.645955 8.1721888 122 112 106
-0.73734331 1.6080607 8.1721888 110 116 126
-0.32761022 1.604745 8.1721888 101 103 107
-0.25229499 1.6083524 8.1721888 98 101 102
-0.189769 1.606166 8.1721888 101 102 104
-0.01356 1.6232181 8.1721888 101 110 103
1.1232719 1.634587 8.1721888 88 94 97
1.2199028 1.6061659 8.1721888 96 102 106
1.6803204 1.6118501 8.1721888 87 79 67
1.7030571 1.61185 8.1721888 50 50 20
1.8394767 1.602106 8.1721888 26 20 17
-4.0265789 1.7937429 8.1721888 132 130 129
-3.9640534 1.793743 8.1721888 129 128 123
-3.8459489 1.7817434 8.1721897 128 129 128
-3.5718458 1.759638 8.1721888 131 137 147
-3.4331524 1.7664592 8.1721888 119 120 119
-3.1142712 1.7454281 8.1721888 143 140 146
-3.0545874 1.7369021 8.1721888 137 141 143
-2.9371145 1.7425857 8.1721897 142 139 143
-2.8619571 1.7129017 8.1721888 137 147 148
-2.7078531 1.725533 8.1721888 119 137 157
-2.5430126 1.7027971 8.1721888 123 125 128
-4.3423657 1.819006 8.1721888 146 147 149
-4.2766819 1.8278481 8.1721888 145 146 144
-4.1459465 1.8051111 8.1721888 144 141 137
-3.9053166 1.8089007 8.1721888 124 130 134
-3.8810642 1.8096586 8.1721888 132 125 125
-0.72603881 1.59453 8.2591276 123 120 126
-0.65135872 1.59453 8.2591276 82 78 74
-0.55829585 1.59453 8.2591276 80 77 69
-0.44527015 1.5895032 8.2591267 107 112 115
-0.3468931 1.59453 8.2591276 106 108 114
-0.2443105 1.5896057 8.2591267 103 101 99
-0.15679805 1.5856514 8.2591257 102 104 107
-0.053198878 1.5895032 8.2591267 99 100 103
0.057320096 1.5913963 8.2591267 91 91 91
0.14714512 1.589934 8.2591267 72 69 73
0.25383127 1.586323 8.2591267 85 88 84
0.34037372 1.5913963 8.2591267 95 101 105
0.42288768 1.59453 8.2591276 95 99 105
0.57224804 1.59453 8.2591276 90 95 100
0.65726864 1.593381 8.2591267 90 92 94
0.7507146 1.5891681 8.2591267 64 62 59
0.84799027 1.5887851 8.2591267 48 40 39
0.95631784 1.5904264 8.2591267 53 47 45
1.0412189 1.5913963 8.2591267 79 80 83
1.100754 1.59453 8.2591276 104 97 97
1.4281983 1.59453 8.2591276 97 101 101
1.5718142 1.59453 8.2591276 86 88 87
1.6522393 1.5887851 8.2591267 36 32 30
2.2305322 1.5907 8.2591276 26 19 17
-2.702193 1.697933 8.2591276 139 138 137
-2.6504908 1.6941032 8.2591267 133 132 131
-2.521647 1.6930093 8.2591276 125 122 120
-2.4494286 1.6921884 8.2591267 127 126 120
-2.3739278 1.6946505 8.2591276 118 125 118
-2.2497344 1.6858968 8.2591267 114 116 122
-2.1425698 1.6821355 8.2591257 122 121 120
-2.0466831 1.6774387 8.2591257 115 115 117
-1.9496459 1.6692098 8.2591257 118 118 124
-1.8546902 1.6685339 8.2591257 117 120 120
-1.7410562 1.6662381 8.2591257 121 118 124
-1.6528399 1.6660181 8.2591257 119 117 118
-1.5574021 1.6528955 8.2591257 117 117 119
-1.4498627 1.6519761 8.2591257 117 116 114
-1.345718 1.6501231 8.2591257 113 115 118
-1.2445544 1.6374897 8.2591257 118 120 124
-1.1599797 1.6276721 8.2591257 114 114 118
-1.0457404 1.6260003 8.2591257 117 119 120
-0.95107013 1.6214699 8.2591257 114 117 121
-0.87539941 1.6117636 8.2591267 116 120 117
-0.74953961 1.6154193 8.2591257 117 120 128
-0.65135878 1.6117635 8.2591267 86 80 77
-0.54939145 1.6160721 8.2591257 86 80 81
-0.45959744 1.6153196 8.2591267 101 105 109
-0.34689313 1.606019 8.2591276 105 105 106
-0.25144401 1.6104379 8.2591267 100 100 96
-0.14458223 1.6165088 8.2591257 101 104 106
-0.046531003 1.6183287 8.2591257 96 98 99
0.034805778 1.6181461 8.2591267 77 74 75
0.14484726 1.6106145 8.2591267 76 71 67
0.25054866 1.606019 8.2591276 97 98 105
0.35395199 1.606019 8.2591276 100 100 103
0.45823914 1.6104379 8.2591267 100 102 108
0.54926944 1.6117632 8.2591267 97 100 103
0.65267295 1.6117632 8.2591267 90 96 98
0.75033164 1.6117632 8.2591267 77 76 75
0.84799027 1.6117632 8.2591267 48 42 40
0.95139384 1.6117635 8.2591267 50 44 41
1.0490525 1.6117632 8.2591267 72 73 74
1.1589186 1.6272023 8.2591257 95 97 99
1.2523032 1.6180555 8.2591267 97 102 105
1.353518 1.606019 8.2591276 95 102 106
1.4619482 1.6139174 8.2591267 96 103 106
1.5456185 1.6165887 8.2591257 95 98 102
1.6566581 1.6095541 8.2591267 60 63 65
1.7430042 1.6083168 8.2591267 26 21 19
1.8446841 1.6088911 8.2591267 26 20 17
1.9571463 1.6307651 8.2591257 25 19 17
2.0454855 1.6415315 8.2591257 24 18 16
2.1528423 1.6421283 8.2591267 25 19 16
2.2397871 1.6280398 8.2591257 22 17 15
-4.7932391 1.789847 8.2591276 201 203 197
-4.3509021 1.7898471 8.2591276 153 153 145
-4.299201 1.789847 8.2591276 141 142 140
-4.1153722 1.7841024 8.2591276 140 140 133
-4.0579257 1.7898471 8.2591276 129 130 132
-3.9257994 1.789847 8.2591276 138 132 132
-3.8292892 1.7829539 8.2591267 122 124 120
-3.7592053 1.7783579 8.2591267 132 131 125
-3.6385674 1.778358 8.2591276 129 125 128
-3.5429978 1.7673908 8.2591257 121 124 123
-3.4458611 1.7606015 8.2591257 126 127 129
-3.346801 1.7523557 8.2591267 130 131 128
-3.2547216 1.756772 8.2591257 131 132 132
-3.1716111 1.7512759 8.2591267 136 139 141
-3.0307002 1.7413369 8.2591257 142 141 144
-2.9617147 1.7303739 8.2591267 144 145 150
-2.8297234 1.7255075 8.2591267 138 140 140
-2.7413607 1.7282234 8.2591257 137 139 141
-2.6572344 1.7214111 8.2591257 135 135 132
-2.5574279 1.7105709 8.2591267 127 131 130
-2.441222 1.7135258 8.2591267 122 123 129
-2.3502035 1.7115111 8.2591267 121 130 130
-2.288579 1.709422 8.2591276 114 137 128
-2.11624 1.709422 8.2591276 119 117 127
-2.0702827 1.7094219 8.2591276 115 116 127
-4.8213873 1.8283361 8.2591267 168 174 168
-4.7522783 1.834056 8.2591257 139 142 144
-4.6519198 1.8457617 8.2591257 164 167 165
-4.5722914 1.835804 8.2591267 147 151 151
-4.4328938 1.8138703 8.2591267 151 153 148
-4.3479304 1.8167877 8.2591257 143 146 142
-4.2600322 1.8107368 8.2591257 142 144 142
-4.1457853 1.8114744 8.2591267 135 132 131
-4.0464368 1.8013371 8.2591276 132 130 128
-3.9556713 1.8059326 8.2591267 127 124 128
-3.8223958 1.801337 8.2591276 123 126 123
-2.0577049 1.669739 8.3479347 111 124 113
0.53195 1.6116749 8.3479347 87 97 102
0.68872249 1.600062 8.3479347 86 85 79
0.75259298 1.600062 8.3479347 69 69 50
1.135816 1.623288 8.3479347 94 99 99
1.8383906 1.611675 8.3479347 28 20 15
1.925487 1.623288 8.3479347 26 20 18
-4.1413751 1.7908438 8.3479347 133 137 135
-3.811239 1.774254 8.3479347 141 128 122
-3.7560782 1.7815123 8.3479328 128 127 123
-3.695111 1.79748 8.3479347 112 125 125
-3.4222102 1.751029 8.3479347 127 125 127
-3.393178 1.751029 8.3479347 143 131 124
-3.2364049 1.7568355 8.3479347 125 129 137
-3.1509683 1.757665 8.3479347 134 138 140
-3.0912449 1.739416 8.3479347 132 124 121
-2.7196352 1.704578 8.3479347 136 141 136
-2.6223783 1.7089326 8.3479347 133 138 130
-2.5826046 1.7092228 8.3479347 122 126 125
-2.3422191 1.71619 8.3479347 117 134 130
-4.1828489 1.809093 8.3479347 142 145 137
-4.0493016 1.809093 8.3479347 133 128 118
-0.82986546 1.593976 8.438674 128 126 121
-0.74769187 1.593976 8.438674 112 111 110
-0.64791 1.593976 8.438674 80 82 80
-0.57160652 1.593976 8.438674 97 97 102
-0.40138999 1.593976 8.438674 104 115 114
-0.34073851 1.5900631 8.438674 110 110 114
-0.27666315 1.5895739 8.438674 107 107 107
-0.028942818 1.5886402 8.438674 103 106 110
0.032954 1.5916283 8.438674 101 105 108
0.15034398 1.5881062 8.438674 96 98 101
0.2501255 1.593976 8.438674 70 67 63
0.32055974 1.593976 8.438674 79 87 95
0.59642702 1.593976 8.438674 62 74 89
0.65160042 1.5916283 8.438674 60 67 75
0.75417084 1.58884 8.438674 47 41 39
0.84881651 1.5881066 8.438674 53 51 57
0.95606822 1.5918416 8.438674 60 56 55
1.0319452 1.5892805 8.438674 54 57 63
1.2596825 1.5881065 8.438674 99 103 103
1.3301165 1.5881065 8.438674 93 101 105
1.4592466 1.593976 8.438674 98 102 102
1.5543324 1.5892805 8.438674 77 80 81
1.6441357 1.5925087 8.438674 25 24 23
1.7597654 1.5916283 8.438674 26 20 16
1.8382493 1.5881064 8.438674 26 19 17
2.2472289 1.589574 8.438674 26 21 19
-2.6083291 1.699628 8.438674 135 138 134
-2.573112 1.699628 8.438674 136 130 132
-2.4205041 1.6929199 8.438674 129 119 116
-2.3544719 1.6893562 8.438674 119 120 121
-2.2502885 1.6937586 8.438674 112 113 115
-2.150506 1.6878889 8.438674 115 120 125
-2.0552895 1.6774535 8.438674 120 121 117
-1.9392042 1.6667583 8.438674 115 118 121
-1.8574997 1.6625319 8.438674 116 113 110
-1.7436879 1.6615765 8.438674 117 116 119
-1.6564462 1.6623688 8.438674 124 119 123
-1.548529 1.6536106 8.438674 116 121 123
-1.4489975 1.6486231 8.438674 116 116 117
-1.3472209 1.6473044 8.438673 121 124 124
-1.2669897 1.6347536 8.438674 119 125 135
-1.1460667 1.6282901 8.4386711 119 119 121
-1.0509499 1.6221496 8.438674 118 119 117
-0.94725555 1.6174541 8.438674 110 113 112
-0.84747398 1.6174544 8.438674 118 123 124
-0.75160486 1.6135411 8.438674 114 118 115
-0.64791 1.6115845 8.438674 75 64 60
-0.55047631 1.6151062 8.438674 99 101 102
-0.44834688 1.6078492 8.438674 109 112 112
-0.34856448 1.6115845 8.438674 110 113 117
-0.26169592 1.6080627 8.438674 106 105 107
-0.131393 1.605715 8.438674 99 100 104
-0.041749183 1.6078492 8.438674 99 101 103
0.043790001 1.6102301 8.438674 99 100 103
0.150344 1.6086497 8.438674 84 83 83
0.232517 1.605715 8.438674 54 53 58
0.35097486 1.6110511 8.438674 96 99 102
0.45832106 1.6181445 8.438674 96 97 102
0.54536235 1.6133455 8.438674 90 94 94
0.6465134 1.6111933 8.438674 94 91 89
0.749035 1.6057149 8.438674 50 50 47
0.84881651 1.6057149 8.438674 43 38 36
0.95040405 1.6093268 8.438674 48 43 41
1.0563841 1.6089165 8.438674 83 78 71
1.1276187 1.6145192 8.438674 94 96 100
1.2532542 1.6185722 8.438674 98 102 107
1.3444382 1.6183933 8.438674 96 102 103
1.4471984 1.6156003 8.438674 94 99 102
1.5440021 1.6165149 8.438674 89 95 99
1.6441356 1.6086497 8.438674 46 41 38
1.7625047 1.6154975 8.438674 25 20 16
1.8520343 1.6165152 8.438674 27 20 17
1.9542421 1.6213667 8.438674 25 18 16
2.052067 1.6350623 8.438674 24 18 16
2.1601472 1.6457897 8.438674 25 19 16
2.2311964 1.6274538 8.438674 23 18 16
-4.8035269 1.79354 8.438674 226 221 216
-4.7800498 1.79354 8.438674 226 213 202
-4.2450852 1.79354 8.438674 136 137 136
-4.1610827 1.7882041 8.438674 136 138 134
-4.0111427 1.79354 8.438674 128 135 134
-3.9403169 1.7857139 8.438674 132 132 130
-3.8657095 1.7785401 8.438674 126 123 119
-3.7494602 1.7832686 8.438674 125 127 130
-3.6468415 1.7810185 8.438674 126 128 126
-3.5500598 1.770497 8.438674 124 128 125
-3.4450014 1.7615243 8.438674 131 127 126
-3.3445339 1.7605588 8.438674 130 133 131
-3.2447512 1.749938 8.438674 132 132 130
-3.1656976 1.7475232 8.438674 133 136 134
-3.0452251 1.7348449 8.438674 145 146 146
-2.9402227 1.7359123 8.438674 144 144 144
-2.8489788 1.7289758 8.438674 144 145 147
-2.7726753 1.7289757 8.438674 140 132 141
-2.6494157 1.7113669 8.438674 130 134 129
-2.5496335 1.7113669 8.438674 123 131 134
-2.4428082 1.7137146 8.438674 115 123 124
-2.3703463 1.7167029 8.438674 118 124 123
-4.8307629 1.8287568 8.438674 157 165 163
-4.7523575 1.8347772 8.4386711 128 142 145
-4.6512756 1.8390728 8.438674 166 171 168
-4.551672 1.8362271 8.438674 154 149 146
-4.4560523 1.8181921 8.438674 152 152 152
-4.3350334 1.8223538 8.438674 145 140 136
-4.2640214 1.8204418 8.438674 143 140 139
-4.1355772 1.8099744 8.438674 136 133 131
-4.0469465 1.816431 8.438674 136 129 128
-3.9602737 1.8091918 8.438674 133 129 124
-3.8878829 1.8052791 8.438674 124 125 121
-3.7294064 1.8052789 8.438674 127 124 131
-3.6765804 1.8052791 8.438674 135 134 130
-0.405801 1.599624 8.5314064 101 113 117
-0.376131 1.599624 8.5314064 106 113 115
1.071769 1.599624 8.5314064 57 67 87
-2.512377 1.688635 8.5314064 125 123 124
-2.4598842 1.6872656 8.5314045 120 127 124
-2.399631 1.682701 8.5314064 125 126 118
-1.962209 1.6640512 8.5314064 112 114 122
-1.806229 1.670833 8.5314064 136 125 128
-1.794361 1.670833 8.5314064 120 109 112
-0.90425903 1.611492 8.5314064 120 120 126
-0.88645703 1.611492 8.5314064 122 125 139
-0.52448201 1.6114919 8.5314064 105 110 108
-0.45327356 1.611492 8.5314064 108 113 119
0.53770697 1.611492 8.5314064 79 93 100
1.180559 1.6431409 8.5314064 101 104 97
1.220119 1.635229 8.5314064 103 101 106
1.39814 1.623361 8.5314064 89 103 103
1.415942 1.623361 8.5314064 93 98 103
2.1932981 1.635229 8.5314064 22 21 16
-4.0170736 1.7844267 8.5314064 130 131 137
-3.9899471 1.783579 8.5314064 130 137 135
-3.0405042 1.7349201 8.5314064 136 143 146
-2.969296 1.742041 8.5314064 148 132 130
-2.8258009 1.7161472 8.5314054 146 148 144
-2.7622652 1.7235795 8.5314064 140 137 133
-2.6539462 1.7166096 8.5314064 127 138 135
-2.5331461 1.7153379 8.5314064 123 128 126
-2.4807289 1.710393 8.5314064 127 128 123
-4.613019 1.860721 8.5314064 152 154 149
-4.5952172 1.860721 8.5314064 150 151 138
-4.4053278 1.836985 8.5314064 151 141 141
-4.3875256 1.836985 8.5314064 142 144 141
-4.0492868 1.8053371 8.5314064 131 131 127
-1.016305 1.593398 8.6261997 106 106 111
-0.99830502 1.593398 8.6261997 107 108 116
-0.890306 1.593398 8.6261997 145 120 112
-0.72830778 1.593398 8.6261997 119 119 125
-0.65030831 1.593398 8.6261988 74 69 58
-0.54830897 1.593398 8.6261997 101 102 108
-0.45231 1.5882552 8.6261988 109 111 111
-0.34231085 1.5842549 8.6262007 108 112 114
-0.25071162 1.5837982 8.6261997 106 108 113
-0.19431201 1.5873981 8.6261997 101 110 107
-0.044313252 1.593398 8.6261988 102 108 114
0.054485865 1.5877978 8.6261988 104 106 110
0.14625643 1.5831121 8.6262007 102 104 107
0.24068417 1.590398 8.6261988 95 100 102
0.36121252 1.5849272 8.6261988 79 81 80
0.44357738 1.5845556 8.6261997 75 71 71
0.58568096 1.593398 8.6261997 86 90 98
0.65168089 1.593398 8.6261988 89 91 94
0.74768001 1.593398 8.6261988 53 45 45
0.85250258 1.5877506 8.6261988 85 88 89
0.9516781 1.593398 8.6261988 62 55 54
1.0386776 1.591898 8.6261988 94 95 96
1.3616751 1.5873981 8.6261988 100 103 106
1.4399242 1.5873982 8.6261988 100 101 105
1.5456731 1.593398 8.6261988 70 79 85
1.689672 1.593398 8.6261997 28 21 17
1.7664715 1.593398 8.6261997 26 20 18
1.8493631 1.5887827 8.6261988 27 20 17
1.90567 1.593398 8.6261997 23 18 16
2.185668 1.5853981 8.6261988 22 18 18
2.2276678 1.5853978 8.6261988 26 21 19
-2.6302915 1.6893971 8.6261997 129 134 140
-2.5882921 1.689397 8.6261997 114 125 131
-2.4142935 1.689397 8.6261997 117 119 118
-2.3454938 1.6837972 8.6261988 119 123 119
-2.2474949 1.6797972 8.6261997 121 124 121
-2.1547954 1.6788973 8.6262007 120 119 121
-2.0510967 1.6829972 8.6261988 113 121 118
-1.9291548 1.6619693 8.6261988 121 112 111
-1.8502983 1.6677979 8.6262016 112 117 119
-1.7345343 1.6604567 8.6261988 117 118 118
-1.6536546 1.6588173 8.6262007 115 118 120
-1.5474042 1.6517432 8.6262016 112 112 113
-1.4449683 1.6387312 8.6262016 111 116 115
-1.3572435 1.6308101 8.6261997 120 122 125
-1.2518032 1.6378981 8.6262007 124 125 128
-1.1525897 1.6259696 8.6261988 116 116 119
-1.0440191 1.6196836 8.6262007 119 117 117
-0.95366579 1.6164376 8.6262016 114 116 119
-0.84830666 1.611398 8.6261988 118 119 119
-0.75230742 1.6113981 8.6261988 112 116 119
-0.65291697 1.6153107 8.6262007 68 60 53
-0.54830897 1.6113979 8.6261988 101 105 107
-0.45510998 1.610998 8.6261988 108 113 117
-0.35031077 1.6053981 8.6261988 107 110 112
-0.23897846 1.6147313 8.6261997 102 104 105
-0.15231238 1.6173979 8.6262007 101 104 106
-0.064563125 1.612898 8.6261988 105 108 110
0.05642274 1.6148719 8.6261997 103 105 108
0.14768501 1.6053981 8.6261988 101 103 108
0.25250757 1.6110451 8.6261988 89 92 97
0.35931951 1.617398 8.6262007 85 81 74
0.44457904 1.6215363 8.6262016 80 78 73
0.55328161 1.6191982 8.6261997 70 70 65
0.64825231 1.610541 8.6261988 75 69 72
0.73949814 1.6086708 8.6261988 52 44 41
0.84967917 1.6053981 8.6261988 85 79 77
0.95447803 1.610998 8.6261988 56 50 49
1.0476774 1.6053981 8.6261988 100 92 93
1.1554365 1.6255579 8.6262016 91 95 97
1.2362024 1.6287664 8.6261997 99 100 108
1.347675 1.6053981 8.6261988 94 104 108
1.4444568 1.615311 8.6262007 96 102 104
1.5447501 1.6100134 8.6261988 87 87 87
1.6582876 1.6109365 8.6261988 27 20 17
1.7477769 1.6123453 8.6261997 26 19 17
1.8456707 1.6068981 8.6261988 27 19 17
1.94767 1.6173981 8.6261997 25 18 16
2.0541689 1.6278979 8.6262007 25 18 15
2.1573682 1.634198 8.6261988 25 19 17
2.2349477 1.622678 8.6262016 21 18 15
-4.8082728 1.797397 8.6261997 216 218 220
-4.7689404 1.7920636 8.6261988 186 207 204
-4.4276099 1.7920636 8.6261988 137 144 141
-4.2360282 1.7883973 8.6261988 142 143 140
-4.1554794 1.794997 8.6261988 139 139 140
-4.0505996 1.7781967 8.6262016 135 136 137
-3.9412806 1.7943969 8.6261988 129 124 127
-3.8482814 1.7913971 8.6261988 133 127 125
-3.7490096 1.7864879 8.6262007 128 129 126
-3.6502826 1.7760631 8.6262016 125 124 123
-3.5482838 1.773397 8.6262007 124 125 126
-3.457535 1.7778971 8.6261988 124 127 127
-3.3490856 1.7577969 8.6261997 127 128 126
-3.2443731 1.7499187 8.6262007 127 127 127
-3.1588209 1.7331307 8.6261978 133 138 136
-3.043211 1.7318581 8.6261988 141 142 140
-2.9542887 1.7281243 8.6262007 141 144 141
-2.8442898 1.725397 8.6261988 146 147 147
-2.7537191 1.7219682 8.6262007 134 136 136
-2.64572 1.7139682 8.6262007 126 129 126
-2.5776765 1.7152435 8.6261988 125 127 129
-2.408294 1.7013969 8.6261997 123 124 119
-2.345494 1.7069972 8.6261988 123 121 119
-2.2522948 1.707397 8.6261988 116 119 123
-2.1579318 1.7035788 8.6261988 118 123 126
-2.0602963 1.7013969 8.6261988 113 118 115
-4.8277726 1.830896 8.6262007 148 160 161
-4.7550478 1.8333964 8.6262007 133 145 151
-4.6572309 1.8506134 8.6262007 162 163 153
-4.5396872 1.8383372 8.6261988 147 146 140
-4.451179 1.8302994 8.6262007 146 146 143
-4.361969 1.8204733 8.6261988 147 142 139
-4.2373548 1.8167809 8.6261988 140 137 136
-4.1586423 1.8224874 8.6262007 133 132 132
-4.0942788 1.809397 8.6261997 136 138 139
-3.8542809 1.809397 8.6261997 124 129 115
-3.764282 1.8093969 8.6261988 120 126 126
-0.71828896 1.599167 8.7231236 116 120 112
-0.69401902 1.599167 8.7231236 80 84 72
-0.43919036 1.599167 8.7231236 107 113 113
0.155412 1.5748972 8.7231236 104 104 110
0.32529801 1.599167 8.7231236 88 95 115
0.46181399 1.587032 8.7231236 100 99 98
0.99270803 1.599167 8.7231236 73 86 103
1.0291126 1.599167 8.7231236 94 96 100
1.2960761 1.599167 8.7231236 90 96 105
1.3324805 1.599167 8.7231236 99 105 105
-1.8407513 1.6618632 8.7231226 115 117 121
-1.744887 1.6574137 8.7231236 109 116 118
-1.689067 1.647706 8.7231236 120 115 107
-1.3492947 1.623436 8.7231236 117 125 121
-0.98525304 1.611302 8.7231236 126 127 123
0.51540899 1.6153466 8.7231236 86 82 84
1.2798966 1.6153466 8.7231236 92 97 108
1.3142785 1.611302 8.7231236 94 103 124
-4.2555628 1.793323 8.7231236 137 140 142
-3.5517483 1.769053 8.7231236 123 119 122
-3.4364686 1.7751205 8.7231236 128 133 132
-2.9328771 1.732649 8.7231236 135 148 144
-2.8661361 1.7265816 8.7231226 142 149 156
-2.5506327 1.7083799 8.7231226 131 132 136
-2.4778242 1.7083801 8.7231236 125 123 122
-4.504324 1.805457 8.7231236 146 147 152
-4.4436512 1.817592 8.7231236 147 143 147
-4.025003 1.805457 8.7231236 130 126 126
-3.9885986 1.805457 8.7231236 125 128 125
-0.8553136 1.5927939 8.8222494 118 115 114
-0.72031474 1.5927939 8.8222494 116 112 103
-0.64667904 1.5927939 8.8222494 72 64 60
-0.57304323 1.5927939 8.8222494 102 105 106
-0.33372697 1.5927939 8.8222494 112 114 119
-0.25395516 1.5927939 8.8222494 109 115 114
-0.14963777 1.5927939 8.8222494 102 105 110
-0.037138753 1.5887028 8.8222494 101 103 107
0.046724159 1.5880738 8.8222494 101 102 102
0.1473598 1.5927939 8.8222494 104 104 107
0.2492225 1.5927939 8.8222494 96 100 104
0.34976366 1.5880738 8.8222494 68 65 65
0.45049357 1.5829759 8.8222494 99 102 106
0.50081098 1.5805212 8.8222494 102 103 107
0.65899181 1.5914302 8.8222494 91 92 91
0.75240016 1.5927939 8.8222494 65 65 67
0.8477174 1.5870668 8.8222494 88 88 87
0.95694381 1.5887028 8.8222494 73 72 75
1.0260794 1.5878847 8.8222494 93 95 95
1.1501447 1.5894469 8.8222494 100 101 106
1.224896 1.5927939 8.8222494 99 102 105
1.3721676 1.5927939 8.8222494 103 106 111
1.4417124 1.5927939 8.8222494 93 96 102
1.555535 1.5848526 8.8222494 44 43 42
1.8630728 1.5927939 8.8222494 25 19 16
2.188297 1.5927939 8.8222494 20 18 18
2.221024 1.588703 8.8222494 28 23 20
-2.6479933 1.6892217 8.8222494 129 125 124
-2.4507549 1.6909751 8.8222494 125 122 118
-2.3525739 1.6909751 8.8222494 120 120 121
-2.2491333 1.6857153 8.8222494 125 123 122
-2.1436474 1.6816244 8.8222494 122 122 121
-2.045758 1.6725662 8.8222485 117 118 116
-1.9549408 1.6725658 8.8222494 114 116 117
-1.8368006 1.6619081 8.8222494 124 123 123
-1.7668967 1.6589293 8.8222494 114 118 119
-1.6489434 1.6582482 8.8222494 109 115 107
-1.5597621 1.6517025 8.8222494 117 115 114
-1.4580882 1.6409402 8.8222494 119 120 122
-1.3335367 1.6377934 8.8222494 121 124 131
-1.2480377 1.6357479 8.8222494 123 127 129
-1.1466826 1.6338433 8.8222494 118 118 119
-1.0598575 1.6214299 8.8222494 117 118 117
-0.94582427 1.6188732 8.8222494 124 125 127
-0.8491773 1.6173396 8.8222494 121 119 117
-0.75713265 1.6120796 8.8222494 120 117 118
-0.64667904 1.6112027 8.8222494 75 67 64
-0.55404991 1.6161704 8.8222494 104 106 110
-0.45031714 1.6050671 8.8222494 109 109 112
-0.37668124 1.605067 8.8222494 108 115 118
-0.2416825 1.605067 8.8222494 108 117 122
-0.14571056 1.6168483 8.8222494 104 106 107
-0.045320503 1.6112027 8.8222494 100 106 111
0.048087776 1.6064306 8.8222494 103 106 107
0.16126867 1.6050669 8.8222494 100 104 108
0.25630283 1.6097869 8.8222494 95 101 101
0.32899448 1.6081351 8.8222494 81 81 77
0.55535626 1.6241571 8.8222494 91 90 92
0.65421909 1.6112027 8.8222494 93 94 98
0.7524001 1.6112027 8.8222494 62 62 66
0.84321749 1.6075214 8.8222494 78 77 77
0.95402175 1.6103262 8.8222494 64 61 57
1.0543066 1.6075214 8.8222494 92 96 99
1.1474841 1.6196996 8.8222494 98 99 102
1.2444555 1.6215582 8.8222485 99 104 109
1.3537587 1.6050671 8.8222494 96 101 107
1.4621667 1.6050671 8.8222494 98 98 103
1.5501206 1.6112027 8.8222494 81 80 79
1.6435288 1.6241574 8.8222494 29 21 17
1.752619 1.6195049 8.8222494 27 20 17
1.842034 1.6094496 8.8222494 26 19 17
1.9625455 1.6147554 8.8222494 24 19 15
2.0508437 1.624703 8.8222494 24 18 16
2.1532321 1.6247905 8.8222494 26 19 17
2.2148879 1.6132485 8.8222494 22 18 17
-4.8439164 1.789156 8.8222494 241 243 218
-4.1075583 1.7830195 8.8222494 136 137 133
-4.0532765 1.7844355 8.8222494 133 132 134
-3.9388101 1.7814856 8.8222494 132 132 131
-3.853925 1.780974 8.8222494 129 125 124
-3.7516525 1.7830194 8.8222494 128 128 129
-3.6516671 1.7804925 8.8222494 120 120 122
-3.5411139 1.7713814 8.8222494 126 127 131
-3.4498043 1.76987 8.8222494 134 136 136
-3.3419363 1.7513937 8.8222494 135 134 133
-3.2642543 1.738312 8.8222494 135 137 137
-3.1441576 1.7349515 8.8222494 142 145 135
-3.0487664 1.7266768 8.8222494 144 146 145
-2.9587765 1.7374816 8.8222494 138 144 143
-2.8347855 1.7242136 8.8222494 133 134 136
-2.7566938 1.7237022 8.8222494 130 132 128
-2.6442533 1.7097933 8.8222494 129 129 131
-2.5489357 1.7093843 8.8222494 124 127 129
-2.457835 1.707968 8.8222494 118 121 117
-2.3525739 1.703248 8.8222494 122 123 122
-2.1378028 1.703248 8.8222494 116 124 120
-2.0518947 1.703248 8.8222494 118 116 119
-4.8267775 1.8268204 8.8222494 144 164 163
-4.74369 1.8423374 8.8222446 143 152 158
-4.6556082 1.8443824 8.8222485 153 157 159
-4.5732369 1.8341554 8.8222494 146 146 145
-4.4463253 1.8289359 8.8222494 148 150 147
-4.3707747 1.8169311 8.8222494 149 146 143
-4.2480803 1.8118607 8.8222494 141 144 142
-4.1791496 1.8096105 8.8222494 139 139 139
-4.046196 1.8075652 8.8222494 125 127 125
-3.9480147 1.8075652 8.8222494 125 129 127
-3.8582017 1.8047761 8.8222494 127 128 129
-3.7823343 1.8014292 8.8222494 126 130 129
-3.5307455 1.8014289 8.8222494 126 129 132
0.37622398 1.5893782 8.9236546 100 95 95
0.67415249 1.598688 8.9236546 88 90 93
1.1334591 1.598688 8.9236546 96 101 105
1.2079411 1.598688 8.9236546 98 103 107
1.884487 1.598688 8.9236546 26 20 17
-2.6651294 1.697998 8.9236546 136 133 132
-2.3423738 1.697998 8.9236536 124 123 118
-2.2350841 1.6820371 8.9236536 123 118 125
-2.168582 1.683515 8.9236536 124 122 116
-1.5354838 1.648343 8.9236536 119 118 126
-1.020316 1.623516 8.9236546 118 124 116
-0.96569568 1.6210331 8.9236546 124 123 117
-0.51135498 1.611102 8.9236546 105 110 115
-0.47411361 1.6111019 8.9236546 111 108 114
1.040356 1.611102 8.9236546 100 97 91
1.282423 1.611102 8.9236546 97 99 103
1.9217283 1.611102 8.9236546 24 19 17
-3.7078795 1.784894 8.9236546 116 120 131
-3.643151 1.7760268 8.9236536 122 122 122
-3.5030539 1.77248 8.9236546 133 133 136
-3.4720192 1.77248 8.9236546 137 135 133
-3.3851235 1.7476521 8.9236546 123 131 123
-3.2113321 1.7476521 8.9236546 134 136 130
-3.1802979 1.7476521 8.9236546 144 149 139
-3.0465059 1.726963 8.9236536 146 146 148
-2.994092 1.735239 8.9236546 158 140 151
-2.8203011 1.710411 8.9236546 133 134 134
-2.7582321 1.7166178 8.9236536 134 133 132
-2.6216815 1.710411 8.9236546 137 135 130
-2.56582 1.710411 8.9236536 135 129 127
-4.4154601 1.809721 8.9236546 169 162 157
-4.3492532 1.809721 8.9236536 158 153 140
-4.2664962 1.809721 8.9236536 131 136 136
-4.1858063 1.809721 8.9236546 147 140 140
-1.1417772 1.5864533 9.0274191 116 119 117
-0.83125198 1.592162 9.0274181 119 121 117
-0.74962401 1.592162 9.0274191 106 111 109
-0.67427599 1.592162 9.0274181 60 50 41
-0.52514976 1.5874524 9.0274191 99 110 108
-0.44823158 1.5796037 9.0274191 107 112 116
-0.37358069 1.5837896 9.0274191 106 112 118
-0.22846599 1.592162 9.0274181 110 111 110
-0.15939699 1.592162 9.0274191 97 100 101
0.054090001 1.592162 9.0274191 98 105 113
0.15943766 1.5907665 9.0274191 74 81 94
0.25125068 1.5896503 9.0274191 76 71 72
0.32408798 1.592162 9.0274181 92 100 108
0.64431709 1.592162 9.0274191 86 85 85
0.74478197 1.592162 9.0274191 66 64 61
0.83687401 1.5879756 9.0274191 67 67 64
0.94571006 1.592162 9.0274191 66 66 60
1.0461746 1.5867796 9.0274191 94 97 100
1.1905921 1.592162 9.0274181 102 103 104
1.2398579 1.5873317 9.0274191 102 105 108
1.3610224 1.5885737 9.0274191 99 103 107
1.4438457 1.5879756 9.0274191 100 104 109
1.5484961 1.5858825 9.0274191 42 36 36
1.6374484 1.5869292 9.0274191 27 21 18
2.182677 1.592162 9.0274181 21 19 17
2.2278857 1.5896502 9.0274181 28 24 21
-2.5391443 1.692626 9.0274191 119 122 128
-2.4522042 1.6877961 9.0274191 120 125 124
-2.3415649 1.6867658 9.0274191 115 120 125
-2.2370124 1.6822844 9.0274191 122 123 124
-2.1537695 1.6761439 9.0274191 118 117 120
-2.058351 1.6710985 9.0274191 115 117 119
-1.9517076 1.6754174 9.0274191 117 120 123
-1.8628041 1.6621282 9.0274191 117 118 118
-1.7542676 1.6612314 9.0274181 115 116 121
-1.6600826 1.6549523 9.0274191 110 113 112
-1.549474 1.64336 9.0274191 119 119 118
-1.4540365 1.6433247 9.0274191 115 118 122
-1.3524097 1.6361156 9.0274181 122 123 127
-1.2519457 1.6298361 9.0274191 121 122 123
-1.1514813 1.6235571 9.0274181 116 117 115
-1.0546052 1.6208659 9.0274191 117 118 117
-0.95503819 1.6154836 9.0274191 113 119 122
-0.84590304 1.6130916 9.0274191 114 115 115
-0.75458121 1.6139728 9.0274191 109 111 111
-0.64916003 1.6109986 9.0274191 74 68 64
-0.5477047 1.6139728 9.0274191 104 109 113
-0.44320837 1.6147659 9.0274191 106 112 115
-0.35195294 1.6130916 9.0274191 105 111 117
-0.24730301 1.6109986 9.0274191 104 110 111
-0.14683899 1.6109986 9.0274191 102 104 107
-0.05474633 1.6089058 9.0274191 103 105 109
0.061510637 1.6081448 9.0274191 101 104 106
0.15455401 1.6109986 9.0274191 101 104 108
0.25501812 1.6109986 9.0274191 77 77 76
