ply
format ascii 1.0
comment PCL generated
element vertex 493
property float x
property float y
property float z
property float red
property float green
property float blue
end_header
2.505 0.755 0.012511339841528324 -0.040237018342356295 0.0001731957139155822 0.9991901482491516
2.505 0.805 0.01602982105352197 -0.05005036697585466 0.00022179994344050138 0.9987466703675999
2.505 0.855 0.020390146402165875 -0.061742557546733336 0.00028194267969250663 0.9980920684465505
2.505 0.905 0.02575009468910672 -0.07552630473423722 0.0003557125297837359 0.9971437462882607
2.505 0.9550000000000001 0.03228524847714542 -0.09159590195364693 0.00044537933014125145 0.9957961600561382
2.505 1.0050000000000001 0.04018798694890744 -0.11011137928823475 0.0005533448938663494 0.9939191003098145
2.505 1.055 0.04966554303948529 -0.13117972994214694 0.0006820682738337847 0.9913583677132983
2.505 1.105 0.06093698191613579 -0.15483405276284257 0.0008339637013088208 0.9879401401955374
2.505 1.155 0.07422898285199085 -0.18101227655572497 0.0010112733824055428 0.9834803165606619
2.505 1.205 0.0897703451243701 -0.20953807588137172 0.0012159234875714561 0.9777997321977567
2.505 1.2550000000000001 0.10778519125031279 -0.24010741995980686 0.0014493793742737136 0.970745242676818
2.505 1.305 0.12848490713755203 -0.2722845324017708 0.0017125235768969394 0.9622152569346153
2.505 1.355 0.15205893687433306 -0.3055104440612917 0.002005584428281292 0.952186613117709
2.505 1.405 0.17866463689794412 -0.33912551996945944 0.0023281410127886796 0.9407382534291184
2.505 1.455 0.208416485839934 -0.37240448529236797 0.0026792194645241826 0.9280666576907002
2.505 1.5050000000000001 0.24137503689805986 -0.4045992811059754 0.0030574775378751236 0.9144889685281244
2.505 1.555 0.27753608260325185 -0.43498265701349387 0.003461453786810621 0.9004321775876089
2.505 1.605 0.3168205702008572 -0.4628847545820832 0.003889841596618073 0.886409935136017
2.505 1.655 0.3590658523090142 -0.48771638615246715 0.004341742350775623 0.8729913378446186
2.505 1.705 0.40401887530174563 -0.5089757104194829 0.0048168573026401516 0.8607674041741524
2.505 1.7550000000000001 0.45133189137627794 -0.5262384020184653 0.005315590242722733 0.8503204623795806
2.505 1.805 0.5005612256727182 -0.5391340875338912 0.005839045904487304 0.8421997038719046
2.505 1.855 0.5511695356516962 -0.5473132003254749 0.006388915785409661 0.83690348458145
2.505 1.905 0.6025318675415411 -0.550408606788959 0.006967239974812608 0.8348663504656122
2.505 1.955 0.6539456484371683 -0.5479959969320288 0.007576020193697393 0.836446645796668
2.505 2.005 0.7046445600239392 -0.5395569512595115 0.008216637881955913 0.8419090112413918
2.505 2.055 0.7538160311548029 -0.5244496548367208 0.008889007383770905 0.8513950581776804
2.505 2.105 0.8006218741069716 -0.5018952098497079 0.00959037994759371 0.864875264383471
2.505 2.1550000000000002 0.8442213871922467 -0.4709928968637391 0.0103137340468011 0.8820767075452765
2.505 2.205 0.883796068818399 -0.43078505522625415 0.011045787029066681 0.902386960667441
2.505 2.255 0.9185749487095182 -0.38039830796727564 0.011764908112361725 0.9247479192908419
2.505 2.305 0.9478594525329418 -0.3192841880587703 0.012439651674607803 0.9475773648213989
2.505 2.355 0.9710466854500401 -0.24755427937673632 0.013029177175486307 0.9687864157307299
2.505 2.4050000000000002 0.987650053088616 -0.16634057629357432 0.013487075742129125 0.9859761211440405
2.505 2.455 0.9973162356950301 -0.07802630901740847 0.013769349068119205 0.9968562083507131
2.505 2.505 0.9998376886872579 0.01384503835866572 0.013845038358669603 0.9998082965377382
2.505 2.555 0.995160051933055 0.1050740699012963 0.013705314238040842 0.9943699533855667
2.505 2.605 0.9833840983256895 0.1915835781804207 0.01336629881848317 0.9813852834781464
2.505 2.6550000000000002 0.9647621241039239 0.2701436397410055 0.012863988367644562 0.9627340919022027
2.505 2.705 0.939688961501475 0.3387548398915467 0.012244159972346123 0.940795003705177
2.505 2.755 0.9086880608618769 0.3966252282506949 0.011552204389917482 0.9179079337759412
2.505 2.805 0.8723933273720589 0.443880169244621 0.010826363338328798 0.8960207504339579
2.505 2.855 0.8315275923266361 0.4811971060083938 0.01009506655272842 0.8765542965501012
2.505 2.9050000000000002 0.7868787389394927 0.5094951565579783 0.009377238472197957 0.8604224269756087
2.505 2.955 0.7392745809118393 0.5297257102691599 0.008684059558028255 0.8481245539361697
2.505 3.005 0.6895576055647417 0.5427570147924747 0.008021075455160506 0.839851466178457
2.505 3.055 0.6385606442836772 0.549326798132331 0.0073900864470448245 0.8355749251120372
2.505 3.105 0.5870844275065756 0.550037509575411 0.006790630003437981 0.835112342984006
2.505 3.1550000000000002 0.5358778293012549 0.5453757947144798 0.006221063314951787 0.8381685635424302
2.505 3.205 0.485621420144537 0.5357447304979945 0.0056793220683249825 0.8443608997605676
2.505 3.255 0.43691473978191475 0.5215020042795848 0.005163437569696285 0.8532344334617771
2.505 3.305 0.3902674893284549 0.5029995524363696 0.004671875306190882 0.8642740444037037
2.505 3.355 0.3460946366454025 0.4806208035664777 0.004203734111260505 0.8769184521941794
2.505 3.4050000000000002 0.304715243374942 0.4548114149518237 0.003758825717639421 0.8905798381160133
2.505 3.455 0.26635466529039137 0.4260991160933537 0.003337644063158224 0.9046703285708945
2.505 3.505 0.23114965637440765 0.39509877949881983 0.002941233765633346 0.9186339333937534
2.505 3.555 0.19915582474046836 0.3625006252863816 0.002570976290331915 0.931979981945909
2.505 3.605 0.17035684562419187 0.3290424492112043 0.002228325844530274 0.9443125018663169
2.505 3.6550000000000002 0.14467483096023276 0.2954701712270193 0.001914538042581493 0.9553500470817801
2.505 3.705 0.12198128209687245 0.262493638988055 0.0016304365076011686 0.964932345383656
2.505 3.755 0.1021081059596371 0.23074545944299096 0.0013762532120413602 0.973013175077059
2.505 3.805 0.08485824849259335 0.20074937334182522 0.0011515601890364092 0.9796419565392223
2.505 3.855 0.07001558521443718 0.17290191073668207 0.0009552897102157098 0.9849385852352287
2.505 3.9050000000000002 0.057353800227244824 0.1474678669761728 0.0007858238069323698 0.9890665350169533
2.505 3.955 0.046644075741820556 0.12458754955614283 0.0006411259366515402 0.9922084112993241
2.505 4.005 0.03766149893400178 0.10429231480069112 0.0005188876913313909 0.9945465518662651
2.505 4.055 0.030190167782808218 0.08652463870946457 0.00041666908257433994 0.9962496239813957
2.505 4.105 0.024027039853698865 0.07115949765648964 0.00033201875846558597 0.997464894448331
2.505 4.155 0.01898461644702923 0.058024734586620656 0.0002625678721054967 0.9983151111919846
2.505 4.205 0.014892588941261341 0.04691901038507619 0.00020609685165550208 0.9988986755364995
2.505 4.255 0.01159859526903015 0.037626696628801186 0.00016057772093351058 0.9992918522211616
2.505 4.305 0.008968243721662963 0.029929594563100126 0.0001241962268969182 0.9995520016210192
2.505 4.355 0.006884560594984369 0.023615684919914715 9.535840495663798e-05 0.9997211062754142
2.505 4.405 0.005247009709513891 0.01848527548441552 7.268588009476248e-05 0.9998291300552451
2.505 4.455 0.00397021773878626 0.014354972045154908 5.5003548542649185e-05 0.9998969605675339
2.505 4.505 0.002982521613252801 0.011059896542985472 4.1322551763388676e-05 0.999938836619973
2.505 4.555 0.0022244348479684463 0.008454543107446897 3.082076767483501e-05 0.9999642592367614
2.505 4.605 0.0016471099745283936 0.006412615886080225 2.2822455282840128e-05 0.9999794387069333
2.505 4.655 0.001210855505512802 0.0048261417793082585 1.6778208989579495e-05 0.9999883539691939
2.505 4.705 0.000883748848300608 0.003604101245861231 1.2245999637038789e-05 0.9999935051310309
2.505 4.755 0.0006403718276074754 0.0026707735548663725 8.873786220519017e-06 0.999996433438577
2.505 4.805 0.0004606832165386079 0.0019639503325549596 6.383960093978269e-06 0.9999980714273083
2.505 4.855 0.0003290329415171154 0.001433133538629187 4.559719089984959e-06 0.9999989730532074
2.505 4.905 0.00023331528218791008 0.0010378013870089992 3.2333511702495494e-06 0.9999994614787684
2.505 4.955 0.00016425318840649638 0.0007457982776479219 2.276326771993614e-06 0.999999721889835
2.555 0.005 0.00012732463239026461 -0.0004447118772573088 1.3587202648348842e-05 0.9999999010233622
2.555 0.055 0.00018177536981016848 -0.0008203156611711416 1.9313420241973693e-05 0.9999996633545473
2.555 0.105 0.00025764662582562233 -0.0011388815501270264 2.7373955053719916e-05 0.9999993510995303
2.555 0.155 0.00036256067617978886 -0.0015691095953071102 3.8519694507300724e-05 0.9999987682048969
2.555 0.20500000000000002 0.0005065283453742028 -0.0021453437205432068 5.381395967873851e-05 0.9999976972995381
2.555 0.255 0.0007025765099349958 -0.002910720337279031 7.464036087358772e-05 0.9999957610589831
2.555 0.305 0.0009674985299351506 -0.00391881236527378 0.00010278243428106855 0.9999923161431876
2.555 0.355 0.0013227379647251353 -0.005235382526543188 0.00014051736181729 0.9999862854182912
2.555 0.405 0.0017954120682248526 -0.00694018247004009 0.00019072438629912067 0.9999758984553033
2.555 0.455 0.002419475774069798 -0.009128705441483484 0.0002570078419868665 0.9999582994724989
2.555 0.505 0.0032370188788761515 -0.01191376624010237 0.0003438337241019105 0.9999289694535041
2.555 0.555 0.004299678696810012 -0.015426743245860245 0.0004566773460941456 0.9998808964264833
2.555 0.605 0.005670137498950716 -0.019818273712817816 0.0006021777910459101 0.9998034173821131
2.555 0.655 0.007423658652733083 -0.025258145992464842 0.0007882924481710997 0.9996806513362353
2.555 0.705 0.00964959785809897 -0.03193408224764155 0.0010244418210947806 0.999489452125412
2.555 0.755 0.0124528068378726 -0.04004905542196002 0.0013216308988065419 0.9991968406933521
2.555 0.805 0.015954827201048072 -0.04981674068480653 0.0016925286609765033 0.9987569412496089
2.555 0.855 0.020294753220538992 -0.06145467580079179 0.002151481899418676 0.9981075563023535
2.555 0.905 0.02562962554626003 -0.07517471735572741 0.0027144340058219657 0.9971666830166932
2.555 0.9550000000000001 0.03213420529623318 -0.0911704633363028 0.00339871488019832 0.9958295011457569
2.555 1.0050000000000001 0.039999971627064104 -0.10960151353606237 0.004222666786756159 0.9939666379289662
2.555 1.055 0.04943318795608773 -0.13057481222280642 0.00520507609760776 0.9914247957337949
2.555 1.105 0.06065189457693441 -0.15412390779603105 0.006364396605099014 0.9880310296248462
2.555 1.155 0.0738817102673062 -0.18018777319606322 0.007717780468526518 0.9836019531575179
2.555 1.205 0.08935036389087354 -0.20859176610565622 0.009279979440814134 0.9779587706516576
2.555 1.2550000000000001 0.10728092943076364 -0.2390341360290822 0.01106223750714298 0.970948149343808
2.555 1.305 0.127883803847701 -0.2710818279067396 0.013071353214875393 0.9624675487017069
2.555 1.355 0.1513475449354452 -0.3041787574420591 0.015309123475732288 0.9524919497084527
2.555 1.405 0.17782877295554023 -0.33766796596229964 0.01777236513912466 0.9410974911241899
2.555 1.455 0.20744143096315026 -0.370826243780863 0.020453630475256418 0.9284770034436811
2.555 1.5050000000000001 0.24024578886418765 -0.4029066409305957 0.0233425958550768 0.914943365412729
2.555 1.555 0.2762376588737894 -0.43318185680709287 0.026427946040311474 0.9009189989123605
2.555 1.605 0.3153383580774026 -0.46098081358466664 0.029699452672907096 0.8869129788303635
2.555 1.655 0.35738600002204446 -0.4857121188679911 0.03314989804765563 0.8734900238950624
2.555 1.705 0.4021287149668372 -0.5068710766074201 0.03677653344566991 0.8612370163239351
2.555 1.7550000000000001 0.44922038201097547 -0.5240302835857303 0.04058185553402436 0.8507322580497784
2.555 1.805 0.49821940198130515 -0.5368165374470528 0.044573582530919635 0.8425207420970217
2.555 1.855 0.5485909462397025 -0.5448781986064306 0.04876376493701459 0.8370960780654624
2.555 1.905 0.5997129847957914 -0.5478473937809855 0.053166945426215216 0.8348871235331322
2.555 1.955 0.6508862316588341 -0.5453011298919931 0.05779718569996742 0.8362452768558273
2.555 2.005 0.7013479536548147 -0.5367253305198514 0.06266362352349517 0.8414268773133302
2.555 2.055 0.7502893811663767 -0.5214868555262205 0.06776405496079624 0.8505642200143648
2.555 2.105 0.7968762478449144 -0.4988214614060871 0.0730759465842372 0.863618582287061
2.555 2.1550000000000002 0.8402717851377379 -0.4678508306304486 0.07854445535400537 0.880310382087785
2.555 2.205 0.8796613207272835 -0.4276486483633856 0.08406780295494004 0.9000273540616968
2.555 2.255 0.9142774912419815 -0.37738100818685066 0.08948218087173833 0.9217247495680658
2.555 2.305 0.9434249905566106 -0.3165419886904729 0.09455155846989194 0.9438544231960747
2.555 2.355 0.9665037444134088 -0.24527745236931023 0.0989716327733634 0.9643876747788699
2.555 2.4050000000000002 0.9830294349213979 -0.16472839364840297 0.10239874051219876 0.9810092019280615
2.555 2.455 0.9926503952966999 -0.07724554026560287 0.10450866940477052 0.9915195734468986
2.555 2.505 0.995160051933055 0.013705314238037192 0.10507406990130044 0.9943699533855662
2.555 2.555 0.9905042990164509 0.10403020860279076 0.1040302086027868 0.9891185123108961
2.555 2.605 0.9787834379846433 0.18975209449311162 0.10149532088161436 0.976571985300938
2.555 2.6550000000000002 0.9602485847346526 0.2677060031497494 0.09773397410764005 0.9585309416929187
2.555 2.705 0.9352927243186088 0.33591136924662746 0.09308393758910655 0.9372827388647265
2.555 2.755 0.9044368581719948 0.3935577217037941 0.08788191739102677 0.915089661335432
2.555 2.805 0.8683119258221788 0.44073207509249224 0.08241344530387806 0.8938474489630827
2.555 2.855 0.827637376872658 0.47806937037053115 0.07689244241257326 0.8749498439415558
2.555 2.9050000000000002 0.7831974085075535 0.5064514027368583 0.07146266961920705 0.8593020793159788
2.555 2.955 0.7358159615876755 0.5268009417386146 0.06621019101892599 0.847406029237783
2.555 3.005 0.6863315819446832 0.5399663292586873 0.061178720915896836 0.8394602595560994
2.555 3.055 0.6355732046489396 0.5466726210492994 0.056383575567142546 0.8354459514542838
2.555 3.105 0.5843378140042076 0.5475150500480149 0.05182274092996533 0.8351896033197644
2.555 3.1550000000000002 0.5333707805487788 0.5429769471425364 0.04748502934909851 0.8384039640051129
2.555 3.205 0.4833494907812034 0.5334607779222594 0.04335584354726489 0.8447128916080796
2.555 3.255 0.4348706795625604 0.5193254368882414 0.03942113284747206 0.8536668348283535
2.555 3.305 0.38844166342420233 0.5009252164339721 0.035669998862894396 0.8647552131798335
2.555 3.355 0.344475468843346 0.47864650014732235 0.03209623699556209 0.8774208565263559
2.555 3.4050000000000002 0.30328966476543 0.4529380043206702 0.02869895957259351 0.891079981798188
2.555 3.455 0.26510855266019884 0.42433015998932383 0.025482371618382797 0.9051489181676889
2.555 3.505 0.2300682467210089 0.3934397782421368 0.022454773483037486 0.9190761252717882
2.555 3.555 0.19822409490455598 0.36095795882829745 0.019626935283005992 0.9323755334466397
2.555 3.605 0.16955984882017258 0.32762218964851625 0.017010090865833223 0.9446556820655067
2.555 3.6550000000000002 0.1439979847937353 0.2941769656785682 0.014613881363945942 0.955639234928972
2.555 3.705 0.12141060534111794 0.26132984543649856 0.012444592381230779 0.9651693343681205
2.555 3.755 0.10163040379383263 0.22971065454605366 0.010503955613104325 0.9732022822129537
2.555 3.805 0.08446124799287485 0.19984026227171625 0.008788646406991117 0.9797890738671792
2.555 3.855 0.06968802457287336 0.17211258585538802 0.007290452648020201 0.9850503068830335
2.555 3.9050000000000002 0.05708547643132109 0.14679030870364207 0.005996967896752263 0.9891494536452692
2.555 3.955 0.04642585627927736 0.12401224707158695 0.004892601411090804 0.9922686254375312
2.555 4.005 0.0374853035238614 0.10380889920168147 0.00395969927919126 0.9945893792053853
2.555 4.055 0.03004892621926821 0.0861224526599872 0.003179614202288511 0.9962794854865541
2.555 4.105 0.023914631843892874 0.07082805975923098 0.0025336209971215883 0.9974853215538492
2.555 4.155 0.01889579889127809 0.05775408502629337 0.0020036307428170693 0.9983288291573185
2.555 4.205 0.01482291551107854 0.04669994351167673 0.0015726983320044218 0.9989077244150046
2.555 4.255 0.011544332446032571 0.03745089653401022 0.0012253438442985855 0.9992977178405152
2.555 4.305 0.00892628672511467 0.029789693535964765 0.0009477202504667496 0.9995557393088992
2.555 4.355 0.006852351893472106 0.023505264407872407 0.000727662727475414 0.9997234482856102
2.555 4.405 0.005222462119695479 0.018398826828261175 0.000554652295525693 0.9998305734134031
2.555 4.455 0.003951643487558024 0.014287831137383359 0.00041972150683888007 0.9998978356388449
2.555 4.505 0.00296856819573693 0.011008163436553906 0.0003153243386535925 0.9999393586154691
2.555 4.555 0.0022140280606269434 0.008414994831115248 0.00023518722038598988 0.9999645656466852
2.555 4.605 0.0016394041416294713 0.006382618417873086 0.00017415364803343052 0.9999796157185599
2.555 4.655 0.001205190643825049 0.004803565284866234 0.00012803118874158174 0.9999884546176365
2.555 4.705 0.0008796143211257789 0.0035872412482260848 9.344679294136564e-05 0.9999935614632347
2.555 4.755 0.0006373759145397195 0.0026582796000376202 6.771409988214216e-05 0.9999964644759345
2.555 4.805 0.0004585279579700347 0.001954762889148716 4.8714730619523474e-05 0.9999980882626337
2.555 4.855 0.00032749359508319083 0.0014264292676312493 3.479430982610241e-05 0.9999989820439321
2.555 4.905 0.00023222374087912784 0.0010329464953578577 2.4673059829878023e-05 0.9999994662062464
2.555 4.955 0.00016348474692866603 0.0007423093908211888 1.7370196911022615e-05 0.9999997243374843
2.605 0.005 0.00012581797126455925 -0.00043944987949414766 2.5101589976705584e-05 0.9999999031268522
2.605 0.055 0.00017962438081328496 -0.0008106093828769633 3.56804539615808e-05 0.9999996708196126
2.605 0.105 0.0002545978351241437 -0.001125405890165064 5.057183748556709e-05 0.9999993654518345
2.605 0.155 0.0003582704138302755 -0.0015505433407984705 7.11629631802475e-05 0.9999987953748649
2.605 0.20500000000000002 0.0005005344810863874 -0.0021199593117270034 9.9418257856757e-05 0.9999977479417276
2.605 0.255 0.0006942627634471337 -0.0028762798635557736 0.000137893866237881 0.9999958539911195
2.605 0.305 0.0009560499013637167 -0.003872444149243356 0.00018988477736243777 0.9999924840317963
2.605 0.355 0.001307085707706732 -0.005173437050236564 0.00025959797155822404 0.9999865839889954
2.605 0.405 0.0017741665518072164 -0.006858067197490947 0.00035235272185908694 0.9999764211029549
2.605 0.455 0.0023908455709037383 -0.009020699278302338 0.00047480790808621207 0.999959199938668
2.605 0.505 0.0031987145035450013 -0.011772816039588432 0.0006352143664923155 0.9999304962372169
2.605 0.555 0.004248799627898575 -0.01524424703728728 0.0008436877678484917 0.9998834437689308
2.605 0.605 0.005603041481576099 -0.01958385832864864 0.0011124941301183472 0.9998075989157983
2.605 0.655 0.007335812823590636 -0.02495945066651133 0.0014563356371823585 0.999687403596213
2.605 0.705 0.009535411987709602 -0.031556564708498415 0.001892618742674841 0.9995001756968797
2.605 0.755 0.012305449962644923 -0.039575843129794515 0.0024416794016020285 0.9992135861977987
2.605 0.805 0.015766030128086677 -0.049228557105709995 0.003126931632547878 0.9987826447550312
2.605 0.855 0.020054600823008792 -0.060729879557990474 0.003974895741943991 0.9981463229069737
2.605 0.905 0.025326344399854834 -0.07428949961301987 0.005015052387393218 0.9972241069573071
2.605 0.9550000000000001 0.03175395398887518 -0.09009925359485536 0.0062794603365135615 0.9959129946333324
2.605 1.0050000000000001 0.03952664293057827 -0.10831764236513776 0.007802073131842444 0.9940857186416591
2.605 1.055 0.04884823388070627 -0.1290514659007988 0.009617698815944051 0.9915912560215225
2.605 1.105 0.05993418701286023 -0.1523353782115133 0.011760575003765036 0.9882588838056232
2.605 1.155 0.07300745130679966 -0.17811095195762278 0.014262586291615533 0.9839070420649623
2.605 1.205 0.0882930608591287 -0.206207755576198 0.01715123531745699 0.9783579082663523
2.605 1.2550000000000001 0.10601144996816086 -0.23632976359102065 0.020447585382092386 0.9714577392213489
2.605 1.305 0.12637052591987552 -0.268050778691366 0.024164497894709216 0.9631016857447863
2.605 1.355 0.14955661526108127 -0.30082202097258964 0.028305551850229475 0.9532601467765349
2.605 1.405 0.17572448493040152 -0.33399335658802926 0.032865008690898846 0.9420022977460346
2.605 1.455 0.20498672966909964 -0.3668469124545545 0.03782904425811602 0.9295118644929056
2.605 1.5050000000000001 0.23740290619568208 -0.39863871552332913 0.043178222243965295 0.9160910520301794
2.605 1.555 0.27296887628028976 -0.4286415617685134 0.048890895152114 0.9021508143851972
2.605 1.605 0.31160688808106474 -0.45618155186080267 0.054946985538794735 0.8881887302381567
2.605 1.655 0.3531569707839771 -0.4806620068913084 0.06133150337028403 0.8747585277238288
2.605 1.705 0.39737023507966673 -0.5015713212165098 0.06803721595437498 0.8624367495522801
2.605 1.7550000000000001 0.44390465579410343 -0.5184746405278354 0.07506605481305756 0.8517917201665762
2.605 1.805 0.4923238592968648 -0.5309919718760594 0.08242902580962197 0.8433581573135169
2.605 1.855 0.5420993456978692 -0.5387668363489745 0.09014449498530182 0.8376182102093782
2.605 1.905 0.5926164456280747 -0.5414299299594989 0.0982347008259074 0.834987170259338
2.605 1.955 0.6431841479057746 -0.5385620359404703 0.10672018953705699 0.8358000565858023
2.605 2.005 0.6930487449508309 -0.5296604269816734 0.11561162244649542 0.8402938681466624
2.605 2.055 0.7414110374993937 -0.5141140051036113 0.12489815183618658 0.8485795433689343
2.605 2.105 0.787446631264943 -0.4911951018329756 0.1345314750838796 0.8605978469337744
2.605 2.1550000000000002 0.8303286593660195 -0.4600804646738255 0.14440508227395132 0.8760554424458366
2.605 2.205 0.8692520896865512 -0.4199196892825296 0.1543296565575186 0.8943432292244976
2.605 2.255 0.9034586392390191 -0.36997295775906425 0.16400876518403476 0.9144512756127675
2.605 2.305 0.9322612296125857 -0.30983390419623524 0.173024204852008 0.9349147428219583
2.605 2.355 0.9550668873636817 -0.23972633767390564 0.18084621201014317 0.9538479599113472
2.605 2.4050000000000002 0.9713970256442942 -0.1608082834718797 0.18688529268786333 0.969130839125347
2.605 2.455 0.9809041390230072 -0.07535027429264003 0.19059183803516466 0.9787732563972114
2.605 2.505 0.9833840983256895 0.013366298818493721 0.191583578180426 0.981385283478145
2.605 2.555 0.9787834379846433 0.1014953208816135 0.1897520944931064 0.976571985300939
2.605 2.605 0.9672012725480627 0.18529555175599147 0.1852955517559921 0.965054981334683
2.605 2.6550000000000002 0.9488857464018551 0.2617571784320706 0.17865970253277316 0.9484534201689517
2.605 2.705 0.9242251943172906 0.3289480581012774 0.1704189665933829 0.9288436633237276
2.605 2.755 0.893734452602221 0.38601801254961743 0.16115330392046975 0.9083059543032623
2.605 2.805 0.8580369947341169 0.432965897949573 0.15136227980936814 0.8886112712900003
2.605 2.855 0.8178437569068621 0.470326596867224 0.1414271639693186 0.8710862469186913
2.605 2.9050000000000002 0.7739296567222214 0.4988924976807149 0.1316100300199684 0.856612558719542
2.605 2.955 0.7271088851627484 0.5195167478283035 0.12207266003282621 0.8456953437251578
2.605 3.005 0.6782100653579282 0.5329985404913034 0.11290165045058624 0.8385498036250882
2.605 3.055 0.6280523234022575 0.540031147128065 0.10413210702588178 0.8351783428812654
2.605 3.105 0.5774232127042693 0.5411913416520091 0.09576696298027575 0.8354284053839878
2.605 3.1550000000000002 0.5270592836643668 0.5369536686714799 0.08779154474677857 0.8390312284839063
2.605 3.205 0.47762990711370495 0.5277185976892755 0.08018407131677945 0.8456261563834991
2.605 3.255 0.42972475661500553 0.5138476456440114 0.07292298435768367 0.8547764827242706
2.605 3.305 0.38384514550855053 0.4957006724483163 0.06599184437984508 0.8659826325103948
2.605 3.355 0.3403992128359881 0.47367118140165215 0.059382263872091376 0.8786975353595732
2.605 3.4050000000000002 0.29970076967771664 0.44821529971941626 0.053095122196899214 0.89234743967601
2.605 3.455 0.26197146329354054 0.4198699866321353 0.04714019041976446 0.9063591985370474
2.605 3.505 0.2273457972068309 0.38925667373011397 0.041534313477633235 0.9201924487630343
2.605 3.555 0.195878464429414 0.35706843325912696 0.036298433563118085 0.9333726788859508
2.605 3.605 0.1675534088414981 0.3240417651890419 0.0314539267947405 0.9455197432641801
2.605 3.6550000000000002 0.142294024124101 0.29091740549565215 0.027018869672417022 0.9563665844545716
2.605 3.705 0.11997392623290616 0.25839702737291737 0.023004867434818374 0.9657648535327563
2.605 3.755 0.10042778827701271 0.22710338167653402 0.019414933041866634 0.9736771099322723
2.605 3.805 0.08346179897354142 0.19755007868487787 0.016242645480172235 0.9801582233901851
2.605 3.855 0.0688633904421473 0.17012445913160262 0.01347253060525286 0.9853304822871716
2.605 3.9050000000000002 0.05640997109848161 0.14508390957183245 0.011081387646845796 0.9893572974568755
2.605 3.955 0.045876488638700315 0.12256352002121865 0.009040179257183548 0.9924194973492845
2.605 4.005 0.03704173146286723 0.10259165695930998 0.007316109894309637 0.9946966504710659
2.605 4.055 0.029693350490095895 0.08510980657909806 0.0058745986293424314 0.9963542592446789
2.605 4.105 0.02363164460522319 0.06999358356453023 0.004680961737795481 0.9975364589111541
2.605 4.155 0.01867220063621794 0.05707267967901789 0.0037017220016685864 0.9983631636275844
2.605 4.205 0.0146475126047367 0.04614841827675016 0.002905537256896022 0.998930368616253
2.605 4.255 0.01140772575342226 0.03700830690659591 0.002263786830469243 0.9993123938434333
2.605 4.305 0.008820659958689704 0.029437486020901835 0.0017508760446927887 0.9995650898515039
2.605 4.355 0.006771266466216333 0.02322727736109374 0.0013443236915246734 0.9997293065526305
2.605 4.405 0.005160663546171254 0.018181190613659876 0.0010246925067808282 0.9998341834089971
2.605 4.455 0.0039048827978660095 0.014118803030773997 0.0007754134885998857 0.9999000240698567
2.605 4.505 0.0029334404579570684 0.010877924894248592 0.0005825446767211775 0.9999406639354631
2.605 4.555 0.002187828966645324 0.008315431809078556 0.0004344954467436047 0.9999653318028258
2.605 4.605 0.0016200047022347217 0.006307099660476448 0.00032173917653116905 0.9999800582900517
2.605 4.655 0.0011909293507977147 0.004746728882819383 0.00023653045362786863 0.9999887062453544
2.605 4.705 0.0008692056462419442 0.0035447961557844953 0.0001726376993967468 0.9999937022883887
2.605 4.755 0.0006298337014198377 0.0026268260368492342 0.00012509798692005654 0.9999965420617543
2.605 4.805 0.00045310209310513535 0.0019316334785484572 8.999771876308322e-05 0.9999981303445098
2.605 4.855 0.00032361828942264163 0.001409551250129561 6.428052478287482e-05 0.9999990045161482
2.605 4.905 0.00022947578491585416 0.0010207242948335402 4.5582085832114716e-05 0.9999994780219574
2.605 4.955 0.00016155019500246675 0.0007335261105795475 3.20904584784546e-05 0.9999997304547874
2.6550000000000002 0.005 0.00012343540373930363 -0.0004311287786967535 3.6080362268228464e-05 0.9999999064130874
2.6550000000000002 0.055 0.00017622290157968655 -0.0007952602844347477 5.128614230354022e-05 0.9999996824653554
2.6550000000000002 0.105 0.0002497766118293278 -0.0011040960502561004 7.26906245223446e-05 0.999999387843805
2.6550000000000002 0.155 0.00035148598196674643 -0.0015211834481487366 0.0001022877672059331 0.9999988377683896
2.6550000000000002 0.20500000000000002 0.0004910560481731796 -0.002079817473672874 0.0001429011881142775 0.9999978269669024
2.6550000000000002 0.255 0.0006811157710297698 -0.002821817136381516 0.000198205028377657 0.999995999023404
2.6550000000000002 0.305 0.0009379455445328214 -0.0037991193684171892 0.0002729354329980657 0.9999927460728272
2.6550000000000002 0.355 0.0012823339180489625 -0.005075478987294576 0.00037313943862748343 0.9999870500561538
2.6550000000000002 0.405 0.001740569828157603 -0.006728213332020163 0.0005064629051159284 0.9999772370612666
2.6550000000000002 0.455 0.0023455710289771456 -0.00884990234349831 0.000682477300397677 0.9999606059506768
2.6550000000000002 0.505 0.003138141651971318 -0.011549922127434938 0.0009130425226779398 0.9999328805735922
2.6550000000000002 0.555 0.004168341709900017 -0.014955652612689753 0.0012126993295861104 0.9998874225707934
2.6550000000000002 0.605 0.0054969387957476004 -0.019213158213741595 0.0015990801141818668 0.9998141314735666
2.6550000000000002 0.655 0.007196897299606479 -0.02448709516213676 0.0020933204558059005 0.9996979544742451
2.6550000000000002 0.705 0.009354843482960168 -0.030959551770595863 0.0027204457877836635 0.9995169359890205
2.6550000000000002 0.755 0.012072426292258397 -0.038827481091570866 0.0035096974040250174 0.9992397653897768
2.6550000000000002 0.805 0.015467474754733902 -0.048298344760585206 0.00449474978645298 0.9988228407068717
2.6550000000000002 0.855 0.019674834401943297 -0.05958356285127848 0.00571375724385041 0.9982069685271218
2.6550000000000002 0.905 0.02484674895658029 -0.07288937601336967 0.007209153409722138 0.9973139761236162
2.6550000000000002 0.9550000000000001 0.031152641324142503 -0.08840480297436007 0.009027115164629864 0.9960437249452803
2.6550000000000002 1.0050000000000001 0.03877814178338728 -0.10628656109130842 0.011216598329186308 0.9942722740041106
2.6550000000000002 1.055 0.04792321327720653 -0.12664116052283303 0.013827864220100732 0.9918522100759469
2.6550000000000002 1.105 0.05879923589105928 -0.14950492697674184 0.016910454494651287 0.9886163630744048
2.6550000000000002 1.155 0.07162493670386193 -0.17482345893836923 0.02051064712423853 0.9843861394591906
2.6550000000000002 1.205 0.08662108842630327 -0.20243290436152594 0.0246685436217908 0.9789853840519465
2.6550000000000002 1.2550000000000001 0.10400395107542887 -0.23204624251953998 0.029415087474009484 0.9722598901330134
2.6550000000000002 1.305 0.12397749487526381 -0.2632481361090426 0.03476946444544057 0.964101396730288
2.6550000000000002 1.355 0.14672451797699035 -0.29550147244312513 0.040737431677554975 0.9544733319712299
2.6550000000000002 1.405 0.1723968565560171 -0.3281671586281626 0.047311098720278486 0.9434341396916894
2.6550000000000002 1.455 0.20110497318940745 -0.36053615633616964 0.05447049467545114 0.9311533950881308
2.6550000000000002 1.5050000000000001 0.2329072967925249 -0.3918697354826564 0.06218691324243046 0.9179166074508792
2.6550000000000002 1.555 0.26779976749961026 -0.421441491612401 0.07042761715219421 0.9041167070073303
2.6550000000000002 1.605 0.30570610582614527 -0.4485737839470243 0.0791611392439507 0.8902331573183782
2.6550000000000002 1.655 0.3464693702651431 -0.47266233603909935 0.08836225815547322 0.8768023878980524
2.6550000000000002 1.705 0.3898453846303363 -0.4931854086482978 0.09801579140606281 0.8643847854581052
2.6550000000000002 1.7550000000000001 0.43549860054957196 -0.5096972020190238 0.10811857573397696 0.8535333243847217
2.6550000000000002 1.805 0.4830009078354817 -0.5218078990222619 0.11867926699403968 0.8447672745222381
2.6550000000000002 1.855 0.5318338146013125 -0.5291543912488734 0.12971576271927057 0.8385519966729506
2.6550000000000002 1.905 0.5813942912403134 -0.5313662458162852 0.14125005458584375 0.8352833859754445
2.6550000000000002 1.955 0.6310044119892164 -0.528031385117386 0.1533001510436015 0.8352735599915897
2.6550000000000002 2.005 0.6799247419444014 -0.518666005596234 0.16586843541053242 0.8387331141509256
2.6550000000000002 2.055 0.7273712159774135 -0.5026941782566557 0.1789255772334824 0.8457447611179927
2.6550000000000002 2.105 0.7725350510457809 -0.4794448757951557 0.19238913946284097 0.8562237032986854
2.6550000000000002 2.1550000000000002 0.8146050383346917 -0.4481779131954813 0.20609674332885114 0.8698624549392768
2.6550000000000002 2.205 0.8527913903179941 -0.4081544535685187 0.21977570659730175 0.8860635309174171
2.6550000000000002 2.255 0.8863501833274529 -0.3587691434597929 0.23301514812823101 0.9038742403918286
2.6550000000000002 2.305 0.9146073498972689 -0.2997532063207332 0.24525267546809018 0.9219539795869334
2.6550000000000002 2.355 0.9369811454985961 -0.23143248524924923 0.255793779518979 0.9386205554593144
2.6550000000000002 2.4050000000000002 0.9530020461022752 -0.15497839056062052 0.2638820500849598 0.9520230890593979
2.6550000000000002 2.455 0.9623291268563371 -0.07253988943692939 0.26882418889611803 0.9604538093551518
2.6550000000000002 2.505 0.9647621241039239 0.012863988367643069 0.2701436397410045 0.9627340919022029
2.6550000000000002 2.555 0.9602485847346526 0.09773397410763933 0.2677060031497488 0.958530941692919
2.6550000000000002 2.605 0.9488857464018551 0.17865970253277855 0.26175717843206847 0.9484534201689514
2.6550000000000002 2.6550000000000002 0.9309170544746811 0.252854491825875 0.2528544918258727 0.9338785852170282
2.6550000000000002 2.705 0.9067234899751254 0.3184641636254263 0.2417258874684648 0.9165965152748188
2.6550000000000002 2.755 0.876810139949821 0.37459278921658784 0.22912002630389708 0.8984343358384286
2.6550000000000002 2.805 0.8417886713938629 0.4211213617944041 0.21569656823491948 0.8809834215761981
2.6550000000000002 2.855 0.8023565577702462 0.45844494338532377 0.20197260864601832 0.8654682543231436
2.6550000000000002 2.9050000000000002 0.7592740423580282 0.48722702551387376 0.18831520132891158 0.852729271549508
2.6550000000000002 2.955 0.7133398981118382 0.5082176159644134 0.1749607228191885 0.8432695893331118
2.6550000000000002 3.005 0.6653670568371065 0.5221411889423992 0.1620444714915672 0.8373232160097058
2.6550000000000002 3.055 0.6161591331460496 0.5296413823086499 0.14963037051108835 0.8349196119189543
2.6550000000000002 3.105 0.5664887668449804 0.5312651984731916 0.13773624431538725 0.8359342174436529
2.6550000000000002 3.1550000000000002 0.5170785605568335 0.5274722177050525 0.12635355366081957 0.8401237045974814
2.6550000000000002 3.205 0.46858520948949145 0.5186585805120798 0.11546205027902996 0.8471492146054065
2.6550000000000002 3.255 0.42158722077955335 0.5051888470165862 0.10504026553036824 0.856592535262456
2.6550000000000002 3.305 0.37657641458542473 0.48743069315477333 0.0950726556967795 0.8679703390723779
2.6550000000000002 3.355 0.3339532011734712 0.4657879937653819 0.08555395122221317 0.8807508537005728
2.6550000000000002 3.4050000000000002 0.29402544910187656 0.44072777413480885 0.07649100407407719 0.894375846835052
2.6550000000000002 3.455 0.25701060837978246 0.4127965334743947 0.06790230810064438 0.9082886647460311
2.6550000000000002 3.505 0.22304063548800654 0.38262225799619676 0.05981542510064829 0.9219665517826124
2.6550000000000002 3.555 0.19216918773741332 0.35090043694414597 0.05226275852077403 0.9349532006599083
2.6550000000000002 3.605 0.1643805130569031 0.31836539077017795 0.04527638313260491 0.9468862271097734
2.6550000000000002 3.6550000000000002 0.13959945579249808 0.28575141548687755 0.03888282898061502 0.9575146234693809
2.6550000000000002 3.705 0.11770202518691911 0.2537505262670194 0.033098717600402054 0.9667032353894444
2.6550000000000002 3.755 0.0985260250823184 0.22297407989678525 0.027927925064025586 0.9744242354825747
2.6550000000000002 3.805 0.08188131432707045 0.19392412525473124 0.023360567744956953 0.9807383532414854
2.6550000000000002 3.855 0.06755935035870443 0.1669776108746387 0.019373703918019364 0.9857703267308744
2.6550000000000002 3.9050000000000002 0.05534175672585246 0.14238360800499425 0.015933342266669228 0.9896833012513111
2.6550000000000002 3.955 0.04500774285536953 0.12027139727561088 0.012997210936502692 0.9926559643226068
2.6550000000000002 4.005 0.036340286148055345 0.10066605788721959 0.010517759405228512 0.9948646749817488
2.6550000000000002 4.055 0.02913105869757468 0.0835080394403083 0.00844498490830141 0.9964713189945481
2.6550000000000002 4.105 0.023184141053553355 0.06867374457135592 0.0067288304421336195 0.9976164792381034
2.6550000000000002 4.155 0.018318612206729097 0.05599500511314651 0.005321043617134488 0.9984168697979835
2.6550000000000002 4.205 0.014370138176369594 0.04527619032087041 0.00417649051299857 0.9989657769498528
2.6550000000000002 4.255 0.011191701948206283 0.03630837815252452 0.0032539820741559465 0.9993353357490138
2.6550000000000002 4.305 0.008653626443861324 0.028880501484145022 0.002516699754233531 0.9995797031034451
2.6550000000000002 4.355 0.006643041543932891 0.022787671225975796 0.0019323130436348687 0.9997384599015876
2.6550000000000002 4.405 0.0050629380046584025 0.017837025461808927 0.0014728742402120533 0.9998398227536984
2.6550000000000002 4.455 0.0038309375033217076 0.013851507029572966 0.0011145626690012484 0.9999034420898182
2.6550000000000002 4.505 0.0028778910010539443 0.010671970201808594 0.0008373360321043848 0.9999427023186784
2.6550000000000002 4.555 0.002146398873675682 0.00815798662008324 0.0006245330211871999 0.9999665280462201
2.6550000000000002 4.605 0.001589327283456528 0.006187677299373429 0.00046245971025649736 0.999980749205031
2.6550000000000002 4.655 0.001168377170313753 0.004656850117897994 0.00033998275751678916 0.9999890990199364
2.6550000000000002 4.705 0.0008527458263554022 0.0034776752470895354 0.0002481449218858521 0.9999939220810161
2.6550000000000002 4.755 0.0006179067778791697 0.002577086688064445 0.0001798125625889983 0.999996663140255
2.6550000000000002 4.805 0.00044452186945498915 0.0018950576011152176 0.0001293603513504337 0.9999981960096668
2.6550000000000002 4.855 0.0003174900517853023 0.0013828610648131735 9.239513101792326e-05 0.9999990395787464
2.6550000000000002 4.905 0.00022513028842216637 0.001001396622955555 6.551848692464084e-05 0.9999994964559389
2.6550000000000002 4.955 0.00015849097981688532 0.0007196366023334044 4.612597750082501e-05 0.9999997399977435
2.705 0.005 0.00012022744618009787 -0.00041992499038222584 4.629914830185359e-05 0.9999999107596917
2.705 0.055 0.00017164305194090969 -0.0007745937814306756 6.581155468637106e-05 0.9999996978366108
2.705 0.105 0.00024328517788284852 -0.00107540381872847 9.32782787696784e-05 0.999999417402725
2.705 0.155 0.00034235122744213334 -0.0014816523725010191 0.00013125801544357877 0.9999988937381782
2.705 0.20500000000000002 0.0004782940130194904 -0.0020257692437201285 0.00018337410011175893 0.9999979313143157
2.705 0.255 0.0006634142816662817 -0.0027484867960964362 0.00025434128550572176 0.9999961905581654
2.705 0.305 0.0009135693168983081 -0.0037003925238143216 0.00035023712661620183 0.9999930921907035
2.705 0.355 0.0012490073953398126 -0.004943585010514999 0.0004788213776802116 0.9999876657725996
2.705 0.405 0.001695334231493973 -0.006553373591175919 0.0006499055125693682 0.9999783152235849
2.705 0.455 0.00228461208134043 -0.008619934993696884 0.0008757721469086728 0.9999624641674563
2.705 0.505 0.00305658461947227 -0.011249808514253223 0.0011716407921693213 0.999936032487202
2.705 0.555 0.004060010851065809 -0.014567075098393905 0.0015561717719681702 0.9998926835678388
2.705 0.605 0.005354079082665992 -0.018714025515789132 0.002051993998261228 0.9998227715798564
2.705 0.655 0.007009857435874515 -0.02385107941092956 0.00268623431205288 0.9997119135811847
2.705 0.705 0.009111720845878435 -0.030155671774377432 0.0034910158815278833 0.9995391179278333
2.705 0.755 0.01175867650889805 -0.037819778972442056 0.004503880400641703 0.9992744264614262
2.705 0.805 0.015065491198492074 -0.047045718111597176 0.005768073432626564 0.9988760832737161
2.705 0.855 0.01916350595132199 -0.058039831046422234 0.0073326146335126715 0.9982873387831477
2.705 0.905 0.024201007834322618 -0.07100367508755999 0.009252056333444305 0.9974331444150345
2.705 0.9550000000000001 0.030343016628167338 -0.08612241415437033 0.011585818567937946 0.9962171944853864
2.705 1.0050000000000001 0.037770338274041644 -0.10355027611753667 0.014396982573114146 0.9945200185057974
2.705 1.055 0.046677738886255205 -0.12339326159563539 0.017750438004857448 0.9921990853369231
2.705 1.105 0.05727110500204288 -0.14568979786675118 0.021710324813405225 0.9890920809479984
2.705 1.155 0.06976347921139035 -0.17039073635592303 0.026336802041075105 0.9850245529032946
2.705 1.205 0.08436989657221691 -0.19734092535525202 0.03168231955848126 0.9798228359286832
2.705 1.2550000000000001 0.10130099672900549 -0.22626536538590858 0.03778775496825051 0.9733324560504703
2.705 1.305 0.12075544893213669 -0.25676335780472653 0.04467896955849065 0.9654410224182695
2.705 1.355 0.14291130059926632 -0.2883137066283727 0.05236446741712298 0.9561031163647202
2.705 1.405 0.16791644184177354 -0.3202926456721649 0.060834828681983734 0.9453632871798854
2.705 1.455 0.19587846442941387 -0.3520037779837834 0.07006437060624876 0.9333725538372626
2.705 1.5050000000000001 0.22685427877090655 -0.3827164518548685 0.08001507446231314 0.9203943205704882
2.705 1.555 0.2608399305121743 -0.41170657718079634 0.0906422995555347 0.9067974789540153
2.705 1.605 0.2977611225930403 -0.43829285490757663 0.10190135137483332 0.8930372265056753
2.705 1.655 0.3374649922527966 -0.46186223011873795 0.11375373432309735 0.8796268346959956
2.705 1.705 0.37971370918989605 -0.48188080660962623 0.12617196471738554 0.8671052551683739
2.705 1.7550000000000001 0.4241804455848336 -0.4978895796503499 0.13914208567017863 0.8560055177806686
2.705 1.805 0.4704482173880435 -0.509487123119022 0.15266336248151224 0.8468274730615091
2.705 1.855 0.5180120077767911 -0.5163031450952977 0.16674488675658597 0.8400161933589361
2.705 1.905 0.5662844592556223 -0.5179675353785845 0.18139888238914834 0.8359450207769663
2.705 1.955 0.6146052646456542 -0.514079600326595 0.19663038151816076 0.8349003878260394
2.705 2.005 0.6622542061861343 -0.5041822777139169 0.21242270998531482 0.8370644079888367
2.705 2.055 0.7084675957845272 -0.487746877299651 0.22871806826240076 0.8424909666784297
2.705 2.105 0.7524576698271173 -0.4641756817899107 0.24539271190960046 0.8510718849642042
2.705 2.1550000000000002 0.7934343019711445 -0.43283242587943843 0.26222728188748445 0.8624922861923011
2.705 2.205 0.8306282304455318 -0.39311309483769846 0.27887530705958236 0.8761795807821308
2.705 2.255 0.8633148653832279 -0.3445687681992242 0.294837273959083 0.89125941558339
2.705 2.305 0.8908376576296867 -0.2870834040464794 0.30945350721917897 0.9065437915461313
2.705 2.355 0.9126299815903575 -0.2210871334882185 0.3219337690865458 0.9205862956440821
2.705 2.4050000000000002 0.9282345156764902 -0.14775009335457673 0.33143920025533297 0.9318358044461583
2.705 2.455 0.9373191953178737 -0.06906847569148836 0.33721643414237923 0.9388901012418615
2.705 2.505 0.939688961501475 0.01224415997234654 0.3387548398915474 0.9407950037051768
2.705 2.555 0.9352927243186088 0.09308393758910154 0.3359113692466239 0.9372827388647283
2.705 2.605 0.9242251943172906 0.17041896659338673 0.3289480581012813 0.9288436633237253
2.705 2.6550000000000002 0.9067234899751254 0.24172588746847026 0.3184641636254279 0.9165965152748167
2.705 2.705 0.8831586910142187 0.30525505901429173 0.3052550590142946 0.902019233659882
2.705 2.755 0.8540227577950157 0.3600741986068834 0.29015699551080026 0.8866540979738131
2.705 2.805 0.8199114607245889 0.4059397429358165 0.27392706311430304 0.8718812357189343
2.705 2.855 0.7815041466571958 0.4430890868458208 0.25717795995538545 0.8587965754655307
2.705 2.9050000000000002 0.7395413009410249 0.4720339612333169 0.2403613642627227 0.8481806140275467
2.705 2.955 0.6948009372537045 0.4933984067830716 0.2237824364070968 0.8405233092185072
2.705 3.005 0.6480748601498819 0.5078124692159679 0.2076285308933826 0.8360722990673937
2.705 3.055 0.6001457991351358 0.5158548652534204 0.19200068464198958 0.8348829229846437
2.705 3.105 0.55176631391208 0.5180320896552538 0.17694200240701943 0.8368597743180186
2.705 3.1550000000000002 0.5036402274142223 0.5147820914586562 0.16246084443902561 0.8417873082540569
2.705 3.205 0.4564071680250785 0.5064933584449052 0.14854870096008627 0.8493513768130785
2.705 3.255 0.4106306080834048 0.4935327262192356 0.1351933775868169 0.8591555149140798
2.705 3.305 0.3667895858540239 0.47627669069324263 0.12238818245052153 0.8707362670170291
2.705 3.355 0.3252741053575902 0.4551415036070734 0.11013760473675699 0.8835813033994904
2.705 3.4050000000000002 0.2863840339691704 0.43060734830548913 0.0984597625186873 0.8971527109417209
2.705 3.455 0.2503311703986885 0.40323209147894007 0.08738582467858841 0.9109158018427184
2.705 3.505 0.21724404171548614 0.37365110943965407 0.0769567369358078 0.9243714129367634
2.705 3.555 0.1871749107328139 0.34256180061802827 0.06721787179307145 0.9370876002108579
2.705 3.605 0.16010843475949085 0.3106943711168624 0.05821255577565825 0.9487256221407553
2.705 3.6550000000000002 0.1359714113586956 0.2787735048098456 0.04997564010377042 0.9590556649184933
2.705 3.705 0.11464307216376823 0.24747755343997746 0.0425282424594151 0.9679598179349577
2.705 3.755 0.09596543632604192 0.21740215269728286 0.035874473465012255 0.9754226397599123
2.705 3.805 0.07975330426434983 0.1890336419470228 0.0300004700526176 0.9815122281504528
2.705 3.855 0.06580355322017876 0.1627350042210969 0.02487555621884173 0.9863561857178992
2.705 3.9050000000000002 0.0539034821186468 0.13874424048436404 0.02045498949972551 0.99011697750164
2.705 3.955 0.04383803850360507 0.11718297464652044 0.01668359868099065 0.9929701949142504
2.705 4.005 0.03539583996713172 0.09807202394037198 0.013499656367427707 0.9950877536168358
2.705 4.055 0.028373972828159795 0.08135058318513387 0.01083848712945363 0.9966266150430577
2.705 4.105 0.022581609378738935 0.06689622570089984 0.00863550772243358 0.9977225681487565
2.705 4.155 0.01784253055817026 0.05454374421191784 0.006828571842394229 0.9984880322637514
2.705 4.205 0.013996673254692215 0.04410166324316926 0.0053596199686503235 0.9990126714776834
2.705 4.255 0.010900841273087892 0.035365903196103714 0.004175711305795318 0.9993657069993018
2.705 4.305 0.008428727707160489 0.02813052498733534 0.0032295493056971026 0.9995990414037115
2.705 4.355 0.006470395814333425 0.022195754387455108 0.002479618434137307 0.9997505688818551
2.705 4.405 0.004931357520033942 0.0173736223481862 0.0018900400928172423 0.9998472808359037
2.705 4.455 0.0037313754283389033 0.013491607396426464 0.0014302388352244804 0.9999079612378007
2.705 4.505 0.0028030976118663554 0.01039466456835526 0.0010744916898134248 0.9999453967173009
2.705 4.555 0.00209061620287549 0.007945996702676301 0.0008014163588468411 0.9999681089255901
2.705 4.605 0.0015480223229787041 0.006026882962978133 0.0005934394450673692 0.9999816620875484
2.705 4.655 0.0011380122647682799 0.004535834404376734 0.00043627389582048814 0.9999896178817776
2.705 4.705 0.0008305838506428632 0.0033873015081434823 0.0003184253455837428 0.9999942123801477
2.705 4.755 0.0006018480244021822 0.0025101160592924765 0.0002307396398880204 0.9999968230332471
2.705 4.805 0.0004329692091310346 0.0018458106945798537 0.00016599818317463387 0.999998282712267
2.705 4.855 0.000309238816072181 0.0013469245673022785 0.00011856355601391699 0.9999990858680289
2.705 4.905 0.00021927938674670078 0.0009753732444842661 8.407482665262657e-05 0.9999995207891139
2.705 4.955 0.0001543719643531913 0.0007009353370465205 5.918991263496944e-05 0.9999997525930732
2.755 0.005 0.00011626107085179103 -0.0004060723987578922 5.556018833344421e-05 0.9999999160091326
2.755 0.055 0.00016598044503937165 -0.0007490412960996758 7.897558714367787e-05 0.9999997163499564
2.755 0.105 0.0002352590544147364 -0.001039928157559449 0.0001119363764405377 0.9999994530096877
2.755 0.155 0.0003310568557717247 -0.001432775338978434 0.00015751305972767137 0.9999989611716924
2.755 0.20500000000000002 0.0004625148075785329 -0.0019589428923918414 0.00022005374048979934 0.9999980570576603
2.755 0.255 0.0006415278478872101 -0.0026578196192243143 0.00030521626055902176 0.9999964214125497
2.755 0.305 0.0008834301189499821 -0.0035783245151195776 0.00042029388114855226 0.9999935094522955
2.755 0.355 0.0012078018946396836 -0.004780508304036734 0.0005745985943585255 0.9999884082212204
